//X Y Z isTree Original_cloud_index
906
-1.98132789 -1.83723414 0.04716444 1.000000 0.000000
-1.97059834 -1.82728493 0.14084153 1.000000 0.000000
-1.98369145 -1.83942568 0.23668064 1.000000 0.000000
-1.98695862 -1.84245539 0.33271274 1.000000 0.000000
-1.98582816 -1.84140706 0.42893451 1.000000 0.000000
-1.98064888 -1.83660448 0.52504504 1.000000 0.000000
-1.97443044 -1.83083820 0.62164545 1.000000 0.000000
-1.97682691 -1.83306038 0.72236699 1.000000 0.000000
-1.89875579 -1.77254415 -0.31893668 1.000000 0.000000
-1.91222036 -1.78511369 -0.22886601 1.000000 0.000000
-1.97758532 -1.84613371 -0.14178248 1.000000 0.000000
-1.97341096 -1.84223688 -0.04712275 1.000000 0.000000
-1.98216367 -1.85040784 0.04733175 1.000000 0.000000
-1.96781814 -1.83701587 0.14108223 1.000000 0.000000
-1.97307205 -1.84192050 0.23614912 1.000000 0.000000
-1.97613084 -1.84477603 0.33193347 1.000000 0.000000
-1.97850752 -1.84699464 0.42868847 1.000000 0.000000
-1.97924089 -1.84767938 0.52631104 1.000000 0.000000
-1.96964478 -1.83872104 0.62207615 1.000000 0.000000
-1.97244024 -1.84133065 0.72301590 1.000000 0.000000
-1.89150429 -1.77768052 -0.31871799 1.000000 0.000000
-1.88877904 -1.77511930 -0.22677147 1.000000 0.000000
-1.97160065 -1.85295701 -0.14179803 1.000000 0.000000
-1.96665061 -1.84830499 -0.04710903 1.000000 0.000000
-1.95863259 -1.84076941 0.04691697 1.000000 0.000000
-1.96416938 -1.84597301 0.14126357 1.000000 0.000000
-1.96382654 -1.84565079 0.23578186 1.000000 0.000000
-1.97607028 -1.85715771 0.33296734 1.000000 0.000000
-1.97364402 -1.85487747 0.42897978 1.000000 0.000000
-1.96587932 -1.84758008 0.52440232 1.000000 0.000000
-1.96137834 -1.84334981 0.62141389 1.000000 0.000000
-1.96848989 -1.85003352 0.72383755 1.000000 0.000000
-1.88703370 -1.78543186 -0.31897157 1.000000 0.000000
-1.88207889 -1.78074396 -0.22668260 1.000000 0.000000
-1.97346449 -1.86720920 -0.14238153 1.000000 0.000000
-1.97073817 -1.86462963 -0.04735643 1.000000 0.000000
-1.96719539 -1.86127758 0.04727130 1.000000 0.000000
-1.95967245 -1.85415959 0.14138646 1.000000 0.000000
-1.96847010 -1.86248374 0.23708780 1.000000 0.000000
-1.97339714 -1.86714542 0.33356988 1.000000 0.000000
-1.96420002 -1.85844350 0.42827901 1.000000 0.000000
-1.96272361 -1.85704660 0.52521849 1.000000 0.000000
-1.96475697 -1.85897040 0.62445551 1.000000 0.000000
-1.95454359 -1.84930694 0.72098523 1.000000 0.000000
-1.89045572 -1.80072057 -0.32056877 1.000000 0.000000
-1.88441133 -1.79496312 -0.22768711 1.000000 0.000000
-1.96527648 -1.87198985 -0.14224282 1.000000 0.000000
-1.96315360 -1.86996770 -0.04732457 1.000000 0.000000
-1.95898509 -1.86599696 0.04722408 1.000000 0.000000
-1.96767986 -1.87427902 0.14241678 1.000000 0.000000
-1.95956969 -1.86655390 0.23676823 1.000000 0.000000
-1.95257235 -1.85988867 0.33110201 1.000000 0.000000
-1.95647609 -1.86360717 0.42795488 1.000000 0.000000
-1.95637906 -1.86351466 0.52518970 1.000000 0.000000
-1.95789754 -1.86496115 0.62425923 1.000000 0.000000
-1.95905602 -1.86606455 0.72495359 1.000000 0.000000
-1.87873936 -1.80161321 -0.31960449 1.000000 0.000000
-1.88267076 -1.80538321 -0.22820689 1.000000 0.000000
-1.95528257 -1.87501419 -0.14197369 1.000000 0.000000
-1.95977414 -1.87932134 -0.04739473 1.000000 0.000000
-1.95443869 -1.87420499 0.04726570 1.000000 0.000000
-1.96145034 -1.88092864 0.14242153 1.000000 0.000000
-1.96083713 -1.88034070 0.23768178 1.000000 0.000000
-1.95459151 -1.87435138 0.33250818 1.000000 0.000000
-1.95732808 -1.87697566 0.42951539 1.000000 0.000000
-1.94673014 -1.86681283 0.52427673 1.000000 0.000000
-1.94989669 -1.86984944 0.62370366 1.000000 0.000000
-1.95063245 -1.87055504 0.72415322 1.000000 0.000000
-1.87012279 -1.80542541 -0.31916666 1.000000 0.000000
-1.87881708 -1.81381881 -0.22847563 1.000000 0.000000
-1.95882189 -1.89105594 -0.14269026 1.000000 0.000000
-1.96779728 -1.89972079 -0.04774253 1.000000 0.000000
-1.94534719 -1.87804735 0.04719785 1.000000 0.000000
-1.95517421 -1.88753438 0.14242454 1.000000 0.000000
-1.95706940 -1.88936400 0.23799159 1.000000 0.000000
-1.95413792 -1.88653398 0.33350518 1.000000 0.000000
-1.94841456 -1.88100863 0.42894092 1.000000 0.000000
-1.95136726 -1.88385916 0.52722365 1.000000 0.000000
-1.94582355 -1.87850714 0.62441188 1.000000 0.000000
-1.93999028 -1.87287581 0.72252953 1.000000 0.000000
-1.86893833 -1.81642759 -0.32000208 1.000000 0.000000
-1.86345959 -1.81110287 -0.22734523 1.000000 0.000000
-1.95013344 -1.89534140 -0.14251946 1.000000 0.000000
-1.94991434 -1.89512849 -0.04746255 1.000000 0.000000
-1.94556630 -1.89090264 0.04735672 1.000000 0.000000
-1.94706166 -1.89235592 0.14229497 1.000000 0.000000
-1.94680882 -1.89211011 0.23751397 1.000000 0.000000
-1.95311904 -1.89824307 0.33441561 1.000000 0.000000
-1.95596492 -1.90100896 0.43200386 1.000000 0.000000
-1.93631172 -1.88190806 0.52485776 1.000000 0.000000
-1.93821585 -1.88375866 0.62399387 1.000000 0.000000
-1.93536472 -1.88098764 0.72315156 1.000000 0.000000
-1.88227856 -1.84170544 -0.32334170 1.000000 0.000000
-1.87449515 -1.83408976 -0.22944054 1.000000 0.000000
-1.93961048 -1.89780152 -0.14221464 1.000000 0.000000
-1.94375718 -1.90185881 -0.04746763 1.000000 0.000000
-1.94418967 -1.90228200 0.04747819 1.000000 0.000000
-1.94289291 -1.90101314 0.14245531 1.000000 0.000000
-1.94246829 -1.90059769 0.23776053 1.000000 0.000000
-1.94396150 -1.90205872 0.33393770 1.000000 0.000000
-1.93635333 -1.89461458 0.42907295 1.000000 0.000000
-1.95283020 -1.91073632 0.53106880 1.000000 0.000000
-1.93932605 -1.89752316 0.62639594 1.000000 0.000000
-1.93210447 -1.89045739 0.72429764 1.000000 0.000000
-1.86922491 -1.84124064 -0.32215795 1.000000 0.000000
-1.86123836 -1.83337367 -0.22856900 1.000000 0.000000
-1.94831276 -1.91914439 -0.14332369 1.000000 0.000000
-1.94000578 -1.91096187 -0.04753222 1.000000 0.000000
-1.93967533 -1.91063631 0.04752412 1.000000 0.000000
-1.93424702 -1.90528929 0.14228897 1.000000 0.000000
-1.94283128 -1.91374493 0.23858899 1.000000 0.000000
-1.94021618 -1.91116905 0.33439320 1.000000 0.000000
-1.93564570 -1.90666699 0.43033031 1.000000 0.000000
-1.93652189 -1.90753007 0.52837008 1.000000 0.000000
-1.94282508 -1.91373885 0.62959510 1.000000 0.000000
-1.93230617 -1.90337753 0.72676152 1.000000 0.000000
-1.85525131 -1.83977270 -0.32081094 1.000000 0.000000
-1.85770762 -1.84220839 -0.22889264 1.000000 0.000000
-1.93541121 -1.91926384 -0.14284720 1.000000 0.000000
-1.95328379 -1.93698728 -0.04801639 1.000000 0.000000
-1.93800628 -1.92183721 0.04764083 1.000000 0.000000
-1.93813276 -1.92196262 0.14304806 1.000000 0.000000
-1.93247783 -1.91635489 0.23810525 1.000000 0.000000
-1.93521428 -1.91906857 0.33463821 1.000000 0.000000
-1.93474734 -1.91860545 0.43155828 1.000000 0.000000
-1.93323457 -1.91710520 0.52922392 1.000000 0.000000
-1.94122136 -1.92502534 0.63116342 1.000000 0.000000
-1.94013655 -1.92394972 0.73212868 1.000000 0.000000
-1.86250365 -1.85939133 -0.32314125 1.000000 0.000000
-1.86142981 -1.85831928 -0.23011765 1.000000 0.000000
-1.93522143 -1.93198752 -0.14331047 1.000000 0.000000
-1.93350863 -1.93027771 -0.04768910 1.000000 0.000000
-1.93820429 -1.93496549 0.04780491 1.000000 0.000000
-1.92814708 -1.92492509 0.14278658 1.000000 0.000000
-1.93026757 -1.92704201 0.23862766 1.000000 0.000000
-1.93175173 -1.92852378 0.33515567 1.000000 0.000000
-1.93860543 -1.93536603 0.43386382 1.000000 0.000000
-1.93600917 -1.93277407 0.53175449 1.000000 0.000000
-1.92807996 -1.92485809 0.62898546 1.000000 0.000000
-1.92547262 -1.92225504 0.72902304 1.000000 0.000000
-1.85616815 -1.86553419 -0.32312542 1.000000 0.000000
-1.86426318 -1.87367010 -0.23124325 1.000000 0.000000
-1.93316627 -1.94292080 -0.14363988 1.000000 0.000000
-1.92386127 -1.93356884 -0.04761077 1.000000 0.000000
-1.93524039 -1.94500542 0.04789238 1.000000 0.000000
-1.93555307 -1.94531977 0.14381723 1.000000 0.000000
-1.93557346 -1.94534028 0.24008858 1.000000 0.000000
-1.93633175 -1.94610238 0.33708045 1.000000 0.000000
-1.93822801 -1.94800818 0.43523863 1.000000 0.000000
-1.93496263 -1.94472623 0.53325492 1.000000 0.000000
-1.93233085 -1.94208121 0.63249284 1.000000 0.000000
-1.92062390 -1.93031514 0.72963357 1.000000 0.000000
-1.85152292 -1.87338626 -0.32340840 1.000000 0.000000
-1.85973012 -1.88169038 -0.23146224 1.000000 0.000000
-1.93631995 -1.95918453 -0.14436147 1.000000 0.000000
-1.93411469 -1.95695329 -0.04802663 1.000000 0.000000
-1.92729568 -1.95005381 0.04785731 1.000000 0.000000
-1.92666328 -1.94941378 0.14364152 1.000000 0.000000
-1.93593943 -1.95879960 0.24094725 1.000000 0.000000
-1.93932557 -1.96222568 0.33874500 1.000000 0.000000
-1.92939305 -1.95217586 0.43472201 1.000000 0.000000
-1.92908132 -1.95186043 0.53343463 1.000000 0.000000
-1.92596257 -1.94870484 0.63254344 1.000000 0.000000
-1.92622125 -1.94896662 0.73423827 1.000000 0.000000
-1.84718347 -1.88157201 -0.32375053 1.000000 0.000000
-1.84022915 -1.87448823 -0.22981606 1.000000 0.000000
-1.92527258 -1.96111476 -0.14402725 1.000000 0.000000
-1.93540657 -1.97143745 -0.04822257 1.000000 0.000000
-1.92454195 -1.96037054 0.04795187 1.000000 0.000000
-1.92770541 -1.96359289 0.14420925 1.000000 0.000000
-1.92550063 -1.96134698 0.24046513 1.000000 0.000000
-1.92717361 -1.96305120 0.33777016 1.000000 0.000000
-1.92858958 -1.96449351 0.43602261 1.000000 0.000000
-1.92464590 -1.96047652 0.53402281 1.000000 0.000000
-1.92175150 -1.95752811 0.63331240 1.000000 0.000000
-1.91664612 -1.95232773 0.73307943 1.000000 0.000000
-1.84873605 -1.89582658 -0.32513487 1.000000 0.000000
-1.84576905 -1.89278400 -0.23129915 1.000000 0.000000
-1.93241441 -1.98163640 -0.14505774 1.000000 0.000000
-1.93446684 -1.98374104 -0.04836461 1.000000 0.000000
-1.92313468 -1.97212040 0.04808129 1.000000 0.000000
-1.93074322 -1.97992265 0.14493228 1.000000 0.000000
-1.91690850 -1.96573555 0.24021386 1.000000 0.000000
-1.92812192 -1.97723460 0.33909637 1.000000 0.000000
-1.92354739 -1.97254360 0.43637544 1.000000 0.000000
-1.93043673 -1.97960842 0.53746814 1.000000 0.000000
-1.92007899 -1.96898687 0.63493323 1.000000 0.000000
-1.92253697 -1.97150731 0.73785669 1.000000 0.000000
-1.84724915 -1.90705228 -0.32599604 1.000000 0.000000
-1.84165847 -1.90128052 -0.23158155 1.000000 0.000000
-1.92685485 -1.98923516 -0.14514025 1.000000 0.000000
-1.92879856 -1.99124181 -0.04838954 1.000000 0.000000
-1.92756426 -1.98996747 0.04835857 1.000000 0.000000
-1.93706715 -1.99977803 0.14590949 1.000000 0.000000
-1.91797698 -1.98006976 0.24117832 1.000000 0.000000
-1.92754889 -1.98995161 0.34016708 1.000000 0.000000
-1.91852891 -1.98063970 0.43674099 1.000000 0.000000
-1.92373347 -1.98601270 0.53745270 1.000000 0.000000
-1.91797268 -1.98006535 0.63642848 1.000000 0.000000
-1.92258775 -1.98482990 0.74042606 1.000000 0.000000
-1.84153676 -1.91395414 -0.32611859 1.000000 0.000000
-1.83380854 -1.90592206 -0.23139670 1.000000 0.000000
-1.93302226 -2.00903726 -0.14611137 1.000000 0.000000
-1.93187332 -2.00784326 -0.04863529 1.000000 0.000000
-1.92072868 -1.99626029 0.04835472 1.000000 0.000000
-1.93135405 -2.00730348 0.14598528 1.000000 0.000000
-1.93015170 -2.00605392 0.24355364 1.000000 0.000000
-1.92808974 -2.00391078 0.34144631 1.000000 0.000000
-1.92278302 -1.99839544 0.43923223 1.000000 0.000000
-1.91397321 -1.98923910 0.53658623 1.000000 0.000000
-1.92136657 -1.99692333 0.63977271 1.000000 0.000000
-1.91376996 -1.98902786 0.73959434 1.000000 0.000000
-1.83975756 -1.92498136 -0.32694465 1.000000 0.000000
-1.83835900 -1.92351806 -0.23278339 1.000000 0.000000
-1.93432617 -2.02393079 -0.14672203 1.000000 0.000000
-1.92929924 -2.01867104 -0.04874061 1.000000 0.000000
-1.92636108 -2.01559663 0.04866638 1.000000 0.000000
-1.92368484 -2.01279640 0.14591487 1.000000 0.000000
-1.92605460 -2.01527596 0.24388789 1.000000 0.000000
-1.93075359 -2.02019262 0.34311560 1.000000 0.000000
-1.91991997 -2.00885725 0.44011435 1.000000 0.000000
-1.92305350 -2.01213598 0.54102021 1.000000 0.000000
-1.91729903 -2.00611472 0.64065439 1.000000 0.000000
-1.91336405 -2.00199771 0.74202734 1.000000 0.000000
-1.82776201 -1.92531252 -0.32595822 1.000000 0.000000
-1.82903862 -1.92665732 -0.23241985 1.000000 0.000000
-1.92540646 -2.02816844 -0.14656043 1.000000 0.000000
-1.92327893 -2.02592731 -0.04875984 1.000000 0.000000
-1.93139613 -2.03447771 0.04896563 1.000000 0.000000
-1.92804396 -2.03094673 0.14676119 1.000000 0.000000
-1.92541873 -2.02818131 0.24466708 1.000000 0.000000
-1.93841600 -2.04187226 0.34569198 1.000000 0.000000
-1.93320000 -2.03637815 0.44472122 1.000000 0.000000
-1.93127668 -2.03435206 0.54524952 1.000000 0.000000
-1.90997410 -2.01191235 0.64045721 1.000000 0.000000
-1.91271269 -2.01479721 0.74439037 1.000000 0.000000
-1.83611381 -1.94714320 -0.32861009 1.000000 0.000000
-1.83377874 -1.94466698 -0.23384941 1.000000 0.000000
-1.93505955 -2.05207205 -0.14781810 1.000000 0.000000
-1.93312109 -2.05001640 -0.04918335 1.000000 0.000000
-1.93318820 -2.05008769 0.04918506 1.000000 0.000000
-1.92557883 -2.04201818 0.14709388 1.000000 0.000000
-1.93395174 -2.05089736 0.24662378 1.000000 0.000000
-1.93477619 -2.05177164 0.34626773 1.000000 0.000000
-1.92973483 -2.04642534 0.44549996 1.000000 0.000000
-1.92412126 -2.04047251 0.54515785 1.000000 0.000000
-1.92214191 -2.03837347 0.64682543 1.000000 0.000000
-1.92154181 -2.03773713 0.75048119 1.000000 0.000000
-1.83741295 -1.96165633 -0.33001786 1.000000 0.000000
-1.82616210 -1.94964468 -0.23371039 1.000000 0.000000
-1.93071532 -2.06126761 -0.14801337 1.000000 0.000000
-1.92749405 -2.05782843 -0.04921545 1.000000 0.000000
-1.93886888 -2.06997252 0.04950589 1.000000 0.000000
-1.93547487 -2.06634903 0.14837824 1.000000 0.000000
-1.92519546 -2.05537462 0.24638458 1.000000 0.000000
-1.92926216 -2.05971622 0.34651491 1.000000 0.000000
-1.93798602 -2.06903005 0.44900385 1.000000 0.000000
-1.91715729 -2.04679275 0.54512602 1.000000 0.000000
-1.92783546 -2.05819297 0.65105987 1.000000 0.000000
-1.92068183 -2.05055571 0.75282627 1.000000 0.000000
-1.83997619 -1.97764099 -0.33166730 1.000000 0.000000
-1.82666469 -1.96333349 -0.23461585 1.000000 0.000000
-1.94224834 -2.08756495 -0.14943324 1.000000 0.000000
-1.93259346 -2.07718778 -0.04952320 1.000000 0.000000
-1.93688917 -2.08180499 0.04963328 1.000000 0.000000
-1.92298603 -2.06686139 0.14795123 1.000000 0.000000
-1.93032575 -2.07475042 0.24793001 1.000000 0.000000
-1.93112099 -2.07560515 0.34809673 1.000000 0.000000
-1.92739773 -2.07160330 0.44815740 1.000000 0.000000
-1.92678869 -2.07094860 0.54983586 1.000000 0.000000
-1.93425751 -2.07897639 0.65557909 1.000000 0.000000
-1.93638766 -2.08126593 0.76171315 1.000000 0.000000
-1.82826424 -1.97831190 -0.33074993 1.000000 0.000000
-1.83093333 -1.98119986 -0.23601595 1.000000 0.000000
-1.95100749 -2.11112881 -0.15065090 1.000000 0.000000
-1.93848073 -2.09757376 -0.04985400 1.000000 0.000000
-1.94496858 -2.10459423 0.05002085 1.000000 0.000000
-1.94260263 -2.10203409 0.15000190 1.000000 0.000000
-1.93733478 -2.09633398 0.24973160 1.000000 0.000000
-1.94147038 -2.10080886 0.35122997 1.000000 0.000000
-1.93507302 -2.09388661 0.45157188 1.000000 0.000000
-1.93356931 -2.09225941 0.55376953 1.000000 0.000000
-1.93997419 -2.09919000 0.65989840 1.000000 0.000000
-1.94197047 -2.10135007 0.76667637 1.000000 0.000000
-1.83546317 -1.99950981 -0.33326322 1.000000 0.000000
-1.83297300 -1.99679708 -0.23714055 1.000000 0.000000
-1.96215451 -2.13752437 -0.15206417 1.000000 0.000000
-1.96731842 -2.14314985 -0.05078016 1.000000 0.000000
-1.94280744 -2.11644816 0.05014749 1.000000 0.000000
-1.95072091 -2.12506890 0.15117809 1.000000 0.000000
-1.95318592 -2.12775421 0.25269306 1.000000 0.000000
-1.94098330 -2.11446095 0.35242242 1.000000 0.000000
-1.94665265 -2.12063694 0.45593080 1.000000 0.000000
-1.94464982 -2.11845517 0.55897403 1.000000 0.000000
-1.94139111 -2.11490512 0.66278869 1.000000 0.000000
-1.93872440 -2.11199999 0.76818615 1.000000 0.000000
-1.82953811 -2.00651813 -0.33340704 1.000000 0.000000
-1.81736624 -1.99316883 -0.23598468 1.000000 0.000000
-1.97505665 -2.16611338 -0.15362605 1.000000 0.000000
-1.97275817 -2.16359258 -0.05110753 1.000000 0.000000
-1.97392452 -2.16487169 0.05113775 1.000000 0.000000
-1.96083498 -2.15051579 0.15251985 1.000000 0.000000
-1.96547472 -2.15560436 0.25521654 1.000000 0.000000
-1.96732008 -2.15762830 0.35851583 1.000000 0.000000
-1.96288884 -2.15276861 0.46142146 1.000000 0.000000
-1.95731926 -2.14666009 0.56468141 1.000000 0.000000
-1.95637095 -2.14562011 0.67035502 1.000000 0.000000
-1.95397258 -2.14298964 0.77707052 1.000000 0.000000
-1.83229077 -2.02311969 -0.33514294 1.000000 0.000000
-1.81716192 -2.00641537 -0.23683034 1.000000 0.000000
-1.82910955 -2.03326702 -0.33580610 1.000000 0.000000
-1.83462906 -2.03940272 -0.23999664 1.000000 0.000000
-1.83858955 -2.05763865 -0.33881119 1.000000 0.000000
-1.82999301 -2.04801798 -0.24028710 1.000000 0.000000
-1.83590841 -2.06855536 -0.33959329 1.000000 0.000000
-1.83207881 -2.06424046 -0.24146838 1.000000 0.000000
-1.83828890 -2.08527851 -0.34132496 1.000000 0.000000
-1.83175218 -2.07786369 -0.24234219 1.000000 0.000000
-1.83923542 -2.10050774 -0.34280643 1.000000 0.000000
-1.83261669 -2.09294891 -0.24338359 1.000000 0.000000
-1.84962761 -2.12672114 -0.34607047 1.000000 0.000000
-1.84759986 -2.12438965 -0.24631800 1.000000 0.000000
-1.85437465 -2.14667249 -0.34830332 1.000000 0.000000
-1.86768842 -2.16208482 -0.24996120 1.000000 0.000000
-1.87780023 -2.18858099 -0.35407960 1.000000 0.000000
-1.86287796 -2.17118907 -0.25029024 1.000000 0.000000
-1.89657009 -2.22551298 -0.35902384 1.000000 0.000000
-1.88828683 -2.21579289 -0.25470084 1.000000 0.000000
0.69231814 -2.21117330 -0.36697969 1.000000 0.000000
0.69242609 -2.18578982 -0.36315018 1.000000 0.000000
0.69619685 -2.17236662 -0.36130580 1.000000 0.000000
0.69733053 -2.15106177 -0.35814926 1.000000 0.000000
0.70807940 -2.15951014 -0.35994917 1.000000 0.000000
0.70604515 -2.12916708 -0.35528412 1.000000 0.000000
0.70791900 -2.11109924 -0.35266331 1.000000 0.000000
0.71263427 -2.10175681 -0.35149980 1.000000 0.000000
0.71566617 -2.08765578 -0.34954086 1.000000 0.000000
0.72411698 -2.08944392 -0.35024479 1.000000 0.000000
0.77665651 -2.24104691 -0.29122132 1.000000 0.000000
0.72719252 -2.07579756 -0.34836406 1.000000 0.000000
0.77086794 -2.20047069 -0.28628275 1.000000 0.000000
0.73145986 -2.06575561 -0.34708840 1.000000 0.000000
0.77581078 -2.19100928 -0.28538862 1.000000 0.000000
0.74219638 -2.07395077 -0.34888148 1.000000 0.000000
0.77030933 -2.15250778 -0.28070846 1.000000 0.000000
0.73819172 -2.04116154 -0.34378010 1.000000 0.000000
0.78028351 -2.15754890 -0.28170547 1.000000 0.000000
0.74948210 -2.05085444 -0.34583390 1.000000 0.000000
0.77619255 -2.12394381 -0.27765596 1.000000 0.000000
0.75051236 -2.03251004 -0.34316289 1.000000 0.000000
0.77995360 -2.11224151 -0.27646646 1.000000 0.000000
0.75472075 -2.02300763 -0.34198382 1.000000 0.000000
0.78881842 -2.11440539 -0.27709430 1.000000 0.000000
0.76495743 -2.02964115 -0.34353688 1.000000 0.000000
0.78614604 -2.08586025 -0.27369735 1.000000 0.000000
0.76697522 -2.01450229 -0.34140784 1.000000 0.000000
0.79196793 -2.08014703 -0.27329454 1.000000 0.000000
0.77303737 -2.01013112 -0.34110433 1.000000 0.000000
0.80653048 -2.09722328 -0.27589178 1.000000 0.000000
0.85146719 -2.21407247 -0.20753624 1.000000 0.000000
0.78022122 -2.00868297 -0.34130058 1.000000 0.000000
0.80587459 -2.07472754 -0.27328637 1.000000 0.000000
0.85275036 -2.19540954 -0.20605372 1.000000 0.000000
0.78578842 -2.00309062 -0.34079611 1.000000 0.000000
0.80549419 -2.05332351 -0.27082121 1.000000 0.000000
0.85017389 -2.16721869 -0.20367421 1.000000 0.000000
0.78899080 -1.99158680 -0.33928707 1.000000 0.000000
0.81205118 -2.04979634 -0.27071357 1.000000 0.000000
0.85081649 -2.14764833 -0.20210196 1.000000 0.000000
0.79212415 -1.98008215 -0.33777770 1.000000 0.000000
0.82350117 -2.05851579 -0.27222827 1.000000 0.000000
0.85465246 -2.13638496 -0.20131056 1.000000 0.000000
0.80339295 -1.98888814 -0.33973747 1.000000 0.000000
0.81844139 -2.02614236 -0.26830843 1.000000 0.000000
0.85351205 -2.11296344 -0.19937210 1.000000 0.000000
0.80587637 -1.97593343 -0.33798423 1.000000 0.000000
0.83256316 -2.04136682 -0.27069265 1.000000 0.000000
0.86168259 -2.11276507 -0.19962485 1.000000 0.000000
0.81678581 -1.98363662 -0.33976838 1.000000 0.000000
0.83975178 -2.03941154 -0.27080518 1.000000 0.000000
0.86769766 -2.10728049 -0.19938040 1.000000 0.000000
0.81954783 -1.97154307 -0.33816570 1.000000 0.000000
0.83492804 -2.00854254 -0.26707643 1.000000 0.000000
0.87350112 -2.10133553 -0.19909391 1.000000 0.000000
0.82406521 -1.96380770 -0.33731091 1.000000 0.000000
0.84519434 -2.01416016 -0.26819870 1.000000 0.000000
0.87951469 -2.09594798 -0.19886173 1.000000 0.000000
0.93424624 -2.22637725 -0.12653580 1.000000 0.000000
0.82949638 -1.95832241 -0.33684456 1.000000 0.000000
0.85136968 -2.00996232 -0.26801831 1.000000 0.000000
0.87824029 -2.07339978 -0.19700065 1.000000 0.000000
0.92863834 -2.19238257 -0.12477998 1.000000 0.000000
0.83881819 -1.96198726 -0.33795676 1.000000 0.000000
0.85756361 -2.00583267 -0.26784953 1.000000 0.000000
0.88589346 -2.07209587 -0.19715786 1.000000 0.000000
0.93568730 -2.18856311 -0.12474045 1.000000 0.000000
0.83699805 -1.93971205 -0.33460134 1.000000 0.000000
0.86290324 -1.99974632 -0.26742166 1.000000 0.000000
0.88992453 -2.06236720 -0.19651498 1.000000 0.000000
0.93010539 -2.15548491 -0.12303215 1.000000 0.000000
0.85203689 -1.95650506 -0.33798903 1.000000 0.000000
0.86786056 -1.99284041 -0.26688576 1.000000 0.000000
0.89303476 -2.05064726 -0.19568244 1.000000 0.000000
0.92876554 -2.13269472 -0.12190838 1.000000 0.000000
0.85802287 -1.95234263 -0.33776504 1.000000 0.000000
0.87397510 -1.98864031 -0.26671419 1.000000 0.000000
0.90274757 -2.05410910 -0.19630051 1.000000 0.000000
0.93772209 -2.13368988 -0.12214430 1.000000 0.000000
0.86398649 -1.94815290 -0.33753946 1.000000 0.000000
0.88005918 -1.98439431 -0.26653898 1.000000 0.000000
0.90446979 -2.03943634 -0.19518702 1.000000 0.000000
0.94517118 -2.13121152 -0.12218314 1.000000 0.000000
0.86939460 -1.94274497 -0.33710563 1.000000 0.000000
0.88525826 -1.97819388 -0.26610333 1.000000 0.000000
0.91091114 -2.03551769 -0.19510318 1.000000 0.000000
0.94678110 -2.11567259 -0.12147360 1.000000 0.000000
0.88120735 -1.95156574 -0.33914697 1.000000 0.000000
0.88540560 -1.96086335 -0.26416990 1.000000 0.000000
0.91589713 -2.02839136 -0.19471338 1.000000 0.000000
0.95307577 -2.11072898 -0.12137255 1.000000 0.000000
0.87539035 -1.92148042 -0.33442685 1.000000 0.000000
0.90700978 -1.99088490 -0.26862264 1.000000 0.000000
0.92338902 -2.02683735 -0.19486029 1.000000 0.000000
0.95425391 -2.09458566 -0.12062757 1.000000 0.000000
1.02157676 -2.24235916 -0.04301098 1.000000 0.000000
0.89199525 -1.94065523 -0.33828279 1.000000 0.000000
0.90169495 -1.96175814 -0.26509908 1.000000 0.000000
0.92666066 -2.01607442 -0.19412316 1.000000 0.000000
0.95869839 -2.08577681 -0.12030470 1.000000 0.000000
1.01909387 -2.21717525 -0.04259322 1.000000 0.000000
0.88853371 -1.91616750 -0.33453166 1.000000 0.000000
0.90952420 -1.96143460 -0.26546595 1.000000 0.000000
0.92962736 -2.00478816 -0.19333544 1.000000 0.000000
0.95893365 -2.06798863 -0.11946347 1.000000 0.000000
1.01575398 -2.19052434 -0.04214643 1.000000 0.000000
0.89809716 -1.91989851 -0.33570683 1.000000 0.000000
0.91872603 -1.96399760 -0.26622826 1.000000 0.000000
0.93658161 -2.00216818 -0.19338454 1.000000 0.000000
0.96408218 -2.06095743 -0.11924335 1.000000 0.000000
1.00763988 -2.15407228 -0.04150985 1.000000 0.000000
0.91104990 -1.93069530 -0.33812696 1.000000 0.000000
0.91801184 -1.94544911 -0.26412967 1.000000 0.000000
0.94772458 -2.00841618 -0.19429384 1.000000 0.000000
0.97011554 -2.05586720 -0.11913636 1.000000 0.000000
1.01676130 -2.15471888 -0.04158777 1.000000 0.000000
0.91618466 -1.92482853 -0.33763558 1.000000 0.000000
0.93381900 -1.96187675 -0.26678360 1.000000 0.000000
0.94939011 -1.99459040 -0.19326319 1.000000 0.000000
0.98166054 -2.06238794 -0.11970431 1.000000 0.000000
1.02618158 -2.15592313 -0.04167718 1.000000 0.000000
0.92259032 -1.92165685 -0.33761990 1.000000 0.000000
0.93550187 -1.94855022 -0.26539645 1.000000 0.000000
0.95687389 -1.99306583 -0.19342524 1.000000 0.000000
0.98468494 -2.05099320 -0.11923389 1.000000 0.000000
1.03022885 -2.14585614 -0.04154912 1.000000 0.000000
0.92311257 -1.90633655 -0.33547014 1.000000 0.000000
0.94097745 -1.94322956 -0.26509997 1.000000 0.000000
0.95705169 -1.97642481 -0.19212057 1.000000 0.000000
0.98494399 -2.03402567 -0.11843880 1.000000 0.000000
1.02509379 -2.11693978 -0.04105554 1.000000 0.000000
0.93336171 -1.91114008 -0.33686426 1.000000 0.000000
0.94652772 -1.93809867 -0.26483145 1.000000 0.000000
0.96202368 -1.96982789 -0.19179177 1.000000 0.000000
0.98883998 -2.02473664 -0.11809030 1.000000 0.000000
1.02578413 -2.10038328 -0.04080092 1.000000 0.000000
0.94112933 -1.91077161 -0.33735362 1.000000 0.000000
0.95816612 -1.94536138 -0.26626134 1.000000 0.000000
0.97474605 -1.97902358 -0.19300424 1.000000 0.000000
1.00202632 -2.03441072 -0.11884980 1.000000 0.000000
1.03257024 -2.09642386 -0.04079103 1.000000 0.000000
1.11417615 -2.26210785 0.04401482 1.000000 0.000000
0.94883871 -1.91023922 -0.33781940 1.000000 0.000000
0.96554005 -1.94386303 -0.26649785 1.000000 0.000000
0.98115575 -1.97530115 -0.19296093 1.000000 0.000000
0.99902135 -2.01126885 -0.11769288 1.000000 0.000000
1.03596818 -2.08565187 -0.04064878 1.000000 0.000000
1.10013676 -2.21483850 0.04316660 1.000000 0.000000
0.95364624 -1.90386927 -0.33725643 1.000000 0.000000
0.96008843 -1.91673064 -0.26321793 1.000000 0.000000
0.98345345 -1.96337676 -0.19211711 1.000000 0.000000
1.00046802 -1.99734485 -0.11707372 1.000000 0.000000
1.03912544 -2.07452083 -0.04049952 1.000000 0.000000
1.10046709 -2.19698405 0.04289029 1.000000 0.000000
0.95961022 -1.89984167 -0.33711103 1.000000 0.000000
0.97884244 -1.93791771 -0.26657665 1.000000 0.000000
0.99027413 -1.96055019 -0.19216433 1.000000 0.000000
1.01393068 -2.00738549 -0.11786085 1.000000 0.000000
1.04997337 -2.07874298 -0.04065045 1.000000 0.000000
1.09771454 -2.17326140 0.04249878 1.000000 0.000000
0.96884203 -1.90224349 -0.33811170 1.000000 0.000000
0.97920483 -1.92258990 -0.26491833 1.000000 0.000000
0.99929839 -1.96204197 -0.19263788 1.000000 0.000000
1.02611101 -2.01468658 -0.11849086 1.000000 0.000000
1.05907094 -2.07940078 -0.04073252 1.000000 0.000000
1.10440850 -2.16841745 0.04247623 1.000000 0.000000
0.97081423 -1.89041603 -0.33658612 1.000000 0.000000
0.98440355 -1.91687799 -0.26458457 1.000000 0.000000
1.00986695 -1.96646142 -0.19340312 1.000000 0.000000
1.02804649 -2.00186157 -0.11793863 1.000000 0.000000
1.05855358 -2.06126642 -0.04044659 1.000000 0.000000
1.09984624 -2.14167356 0.04202435 1.000000 0.000000
0.97605711 -1.88504565 -0.33621070 1.000000 0.000000
0.99802715 -1.92747605 -0.26650777 1.000000 0.000000
1.01381052 -1.95795834 -0.19290008 1.000000 0.000000
1.02825141 -1.98584783 -0.11719764 1.000000 0.000000
1.06256616 -2.05211926 -0.04033678 1.000000 0.000000
1.10360777 -2.13138247 0.04189479 1.000000 0.000000
0.98912185 -1.89469242 -0.33852085 1.000000 0.000000
1.00687587 -1.92870069 -0.26714239 1.000000 0.000000
1.01597118 -1.94612312 -0.19206858 1.000000 0.000000
1.02580309 -1.96495640 -0.11616703 1.000000 0.000000
1.06091404 -2.03221250 -0.04001518 1.000000 0.000000
1.10656202 -2.11965251 0.04173692 1.000000 0.000000
0.99220484 -1.88516390 -0.33741090 1.000000 0.000000
1.01244307 -1.92361593 -0.26690677 1.000000 0.000000
1.02935219 -1.95574296 -0.19335750 1.000000 0.000000
1.03908932 -1.97424316 -0.11692137 1.000000 0.000000
1.07030702 -2.03355598 -0.04011207 1.000000 0.000000
1.11620760 -2.12076592 0.04183229 1.000000 0.000000
1.00041997 -1.88540757 -0.33805296 1.000000 0.000000
1.00981617 -1.90311575 -0.26453063 1.000000 0.000000
1.03109992 -1.94322765 -0.19246086 1.000000 0.000000
1.04945755 -1.97782457 -0.11734120 1.000000 0.000000
1.08772922 -2.04995203 -0.04050719 1.000000 0.000000
1.11727476 -2.10563397 0.04160747 1.000000 0.000000
1.01097155 -1.88996148 -0.33947530 1.000000 0.000000
1.02505243 -1.91628492 -0.26683733 1.000000 0.000000
1.03960502 -1.94349027 -0.19283102 1.000000 0.000000
1.04934025 -1.96168971 -0.11659202 1.000000 0.000000
1.07839692 -2.01600981 -0.03990771 1.000000 0.000000
1.11926210 -2.09240532 0.04141999 1.000000 0.000000
1.19388318 -2.23190570 0.13265216 1.000000 0.000000
1.02245581 -1.89611781 -0.34119496 1.000000 0.000000
1.02791989 -1.90625083 -0.26591852 1.000000 0.000000
1.04388368 -1.93585515 -0.19241965 1.000000 0.000000
1.06319451 -1.97166669 -0.11739621 1.000000 0.000000
1.09037888 -2.02207947 -0.04010001 1.000000 0.000000
1.12300789 -2.08258915 0.04129998 1.000000 0.000000
1.18645740 -2.20025444 0.13100669 1.000000 0.000000
1.02154505 -1.87931859 -0.33878645 1.000000 0.000000
1.03854907 -1.91060054 -0.26700956 1.000000 0.000000
1.04591680 -1.92415476 -0.19160415 1.000000 0.000000
1.06638515 -1.96181011 -0.11702155 1.000000 0.000000
1.09598434 -2.01626325 -0.04005732 1.000000 0.000000
1.12563682 -2.07081437 0.04114109 1.000000 0.000000
1.18131614 -2.17324686 0.12963371 1.000000 0.000000
1.03400815 -1.88713980 -0.34081945 1.000000 0.000000
1.03872156 -1.89574206 -0.26541826 1.000000 0.000000
1.05806732 -1.93104947 -0.19264288 1.000000 0.000000
1.06758618 -1.94842207 -0.11643582 1.000000 0.000000
1.09855902 -2.00494981 -0.03990550 1.000000 0.000000
1.13024569 -2.06278014 0.04105653 1.000000 0.000000
1.18905318 -2.17010808 0.12968357 1.000000 0.000000
1.03728414 -1.87814820 -0.33982176 1.000000 0.000000
1.05370235 -1.90787554 -0.26761016 1.000000 0.000000
1.06529272 -1.92886162 -0.19277987 1.000000 0.000000
1.07933283 -1.95428324 -0.11700168 1.000000 0.000000
1.10023510 -1.99212956 -0.03972353 1.000000 0.000000
1.13938618 -2.06301808 0.04113707 1.000000 0.000000
1.18503094 -2.14566445 0.12845954 1.000000 0.000000
1.05070078 -1.88745964 -0.34214199 1.000000 0.000000
1.05515015 -1.89545238 -0.26636234 1.000000 0.000000
1.07011449 -1.92233407 -0.19248497 1.000000 0.000000
1.08659494 -1.95193934 -0.11707880 1.000000 0.000000
1.11956251 -2.01116180 -0.04017766 1.000000 0.000000
1.14398098 -2.05502653 0.04105397 1.000000 0.000000
1.19042873 -2.13846445 0.12826672 1.000000 0.000000
1.05842304 -1.88642120 -0.34259510 1.000000 0.000000
1.06275749 -1.89414668 -0.26667809 1.000000 0.000000
1.07319438 -1.91274822 -0.19188435 1.000000 0.000000
1.09510505 -1.95179927 -0.11728998 1.000000 0.000000
1.11946464 -1.99521530 -0.03993385 1.000000 0.000000
1.14496982 -2.04067326 0.04084368 1.000000 0.000000
1.19234097 -2.12510228 0.12770432 1.000000 0.000000
1.06318414 -1.88010728 -0.34209388 1.000000 0.000000
1.06509042 -1.88347828 -0.26567736 1.000000 0.000000
1.09189320 -1.93087566 -0.19406904 1.000000 0.000000
1.10074854 -1.94653511 -0.11719475 1.000000 0.000000
1.12693667 -1.99284554 -0.03996182 1.000000 0.000000
1.15000594 -2.03364062 0.04077987 1.000000 0.000000
1.19914055 -2.12052917 0.12767039 1.000000 0.000000
1.06783724 -1.87364638 -0.34156781 1.000000 0.000000
1.08160388 -1.89780176 -0.26820782 1.000000 0.000000
1.08830476 -1.90955913 -0.19229223 1.000000 0.000000
1.11262286 -1.95222819 -0.11776145 1.000000 0.000000
1.12636912 -1.97634757 -0.03970650 1.000000 0.000000
1.15717781 -2.03040481 0.04079256 1.000000 0.000000
1.20064580 -2.10667467 0.12707791 1.000000 0.000000
1.06942952 -1.86190128 -0.34007841 1.000000 0.000000
1.08740783 -1.89320195 -0.26807150 1.000000 0.000000
1.10006285 -1.91523457 -0.19323407 1.000000 0.000000
1.12064993 -1.95107722 -0.11791801 1.000000 0.000000
1.13584757 -1.97753656 -0.03980668 1.000000 0.000000
1.16485107 -2.02803230 0.04082313 1.000000 0.000000
1.21132004 -2.10893583 0.12745857 1.000000 0.000000
1.29043210 -2.24667168 0.22667381 1.000000 0.000000
1.08847213 -1.88042867 -0.34412712 1.000000 0.000000
1.09009528 -1.88323271 -0.26717591 1.000000 0.000000
1.10421121 -1.90761936 -0.19283818 1.000000 0.000000
1.12279463 -1.93972373 -0.11745869 1.000000 0.000000
1.13904130 -1.96779120 -0.03968716 1.000000 0.000000
1.16793811 -2.01771283 0.04069400 1.000000 0.000000
1.20918798 -2.08897567 0.12649654 1.000000 0.000000
1.28085136 -2.21278024 0.22368643 1.000000 0.000000
1.09556043 -1.87812257 -0.34437537 1.000000 0.000000
1.10118198 -1.88775945 -0.26834041 1.000000 0.000000
1.11459398 -1.91075158 -0.19353150 1.000000 0.000000
1.12690890 -1.93186307 -0.11721084 1.000000 0.000000
1.15789616 -1.98498476 -0.04011200 1.000000 0.000000
1.17659926 -2.01704764 0.04075992 1.000000 0.000000
1.21097660 -2.07598066 0.12595479 1.000000 0.000000
1.27822816 -2.19127035 0.22194399 1.000000 0.000000
1.10590947 -1.88134241 -0.34564373 1.000000 0.000000
1.11116970 -1.89029098 -0.26922831 1.000000 0.000000
1.11925161 -1.90403962 -0.19323067 1.000000 0.000000
1.13022292 -1.92270386 -0.11688438 1.000000 0.000000
1.15299714 -1.96144652 -0.03971424 1.000000 0.000000
1.18714726 -2.01954174 0.04089052 1.000000 0.000000
1.22712660 -2.08755350 0.12690587 1.000000 0.000000
1.27463460 -2.16837287 0.22005643 1.000000 0.000000
1.11070633 -1.87508368 -0.34517610 1.000000 0.000000
1.11412024 -1.88084698 -0.26841375 1.000000 0.000000
1.13435030 -1.91499925 -0.19472779 1.000000 0.000000
1.14159906 -1.92723656 -0.11739195 1.000000 0.000000
1.16130412 -1.96050227 -0.03977374 1.000000 0.000000
1.18947041 -2.00805235 0.04073841 1.000000 0.000000
1.22199345 -2.06295753 0.12565900 1.000000 0.000000
1.28346300 -2.16672969 0.22032516 1.000000 0.000000
1.12505686 -1.88486910 -0.34766990 1.000000 0.000000
1.12214565 -1.87999189 -0.26882714 1.000000 0.000000
1.13153386 -1.89572036 -0.19315211 1.000000 0.000000
1.14916110 -1.92525232 -0.11750512 1.000000 0.000000
1.16925955 -1.95892441 -0.03982104 1.000000 0.000000
1.19609487 -2.00388312 0.04073495 1.000000 0.000000
1.22161591 -2.04663992 0.12491384 1.000000 0.000000
1.28638411 -2.15514946 0.21958496 1.000000 0.000000
1.13143122 -1.88118804 -0.34768867 1.000000 0.000000
1.13679957 -1.89011371 -0.27081800 1.000000 0.000000
1.14591908 -1.90527642 -0.19451612 1.000000 0.000000
1.16340506 -1.93434966 -0.11829777 1.000000 0.000000
1.16429901 -1.93583608 -0.03943083 1.000000 0.000000
1.19860649 -1.99287796 0.04059271 1.000000 0.000000
1.22986972 -2.04485798 0.12505606 1.000000 0.000000
1.28443372 -2.13557935 0.21802855 1.000000 0.000000
1.14267671 -1.88554323 -0.34919974 1.000000 0.000000
1.14583421 -1.89075327 -0.27145857 1.000000 0.000000
1.14540601 -1.89004683 -0.19335227 1.000000 0.000000
1.16101933 -1.91581047 -0.11740138 1.000000 0.000000
1.17693961 -1.94208074 -0.03963818 1.000000 0.000000
1.20429039 -1.98721254 0.04055933 1.000000 0.000000
1.23763955 -2.04224229 0.12514918 1.000000 0.000000
1.28409874 -2.11890507 0.21676452 1.000000 0.000000
1.14690185 -1.87827802 -0.34856445 1.000000 0.000000
1.15336406 -1.88886106 -0.27174059 1.000000 0.000000
1.15315485 -1.88851845 -0.19359036 1.000000 0.000000
1.17119575 -1.91806412 -0.11777947 1.000000 0.000000
1.19202626 -1.95217824 -0.03992562 1.000000 0.000000
1.21380293 -1.98784173 0.04065500 1.000000 0.000000
1.23649478 -2.02500415 0.12434616 1.000000 0.000000
1.28334022 -2.10172272 0.21544574 1.000000 0.000000
1.15123594 -1.87124121 -0.34797293 1.000000 0.000000
1.16136694 -1.88770831 -0.27213338 1.000000 0.000000
1.15488422 -1.87717116 -0.19282301 1.000000 0.000000
1.17278969 -1.90627515 -0.11729636 1.000000 0.000000
1.19041026 -1.93491590 -0.03965398 1.000000 0.000000
1.22415042 -1.98975790 0.04077790 1.000000 0.000000
1.25455403 -2.03917646 0.12547401 1.000000 0.000000
1.29413068 -2.10350513 0.21607202 1.000000 0.000000
1.39332891 -2.26474380 0.32648709 1.000000 0.000000
1.16322935 -1.87660837 -0.34969431 1.000000 0.000000
1.16802192 -1.88434005 -0.27221084 1.000000 0.000000
1.17922473 -1.90241337 -0.19582091 1.000000 0.000000
1.18591750 -1.91321051 -0.11796711 1.000000 0.000000
1.20258534 -1.94010043 -0.03984264 1.000000 0.000000
1.22818840 -1.98140526 0.04069089 1.000000 0.000000
1.25673807 -2.02746367 0.12501186 1.000000 0.000000
1.29332340 -2.08648586 0.21476802 1.000000 0.000000
1.37260199 -2.21438384 0.31988883 1.000000 0.000000
1.17306352 -1.87838030 -0.35075542 1.000000 0.000000
1.18161893 -1.89207971 -0.27389967 1.000000 0.000000
1.17277169 -1.87791288 -0.19370265 1.000000 0.000000
1.18015432 -1.88973463 -0.11676291 1.000000 0.000000
1.20620596 -1.93145001 -0.03974782 1.000000 0.000000
1.23271120 -1.97389162 0.04062124 1.000000 0.000000
1.26188481 -2.02060628 0.12484922 1.000000 0.000000
1.29693222 -2.07672620 0.21420982 1.000000 0.000000
1.37372410 -2.19969010 0.31842974 1.000000 0.000000
1.18621492 -1.88533998 -0.35279569 1.000000 0.000000
1.17934155 -1.87441552 -0.27191347 1.000000 0.000000
1.18778849 -1.88784111 -0.19513641 1.000000 0.000000
1.20381415 -1.91331172 -0.11846843 1.000000 0.000000
1.21996391 -1.93897974 -0.03998673 1.000000 0.000000
1.23209321 -1.95825791 0.04038429 1.000000 0.000000
1.26453304 -2.00981688 0.12444383 1.000000 0.000000
1.30893409 -2.08038664 0.21503887 1.000000 0.000000
1.37899566 -2.19174075 0.31794652 1.000000 0.000000
1.18976200 -1.87698627 -0.35197699 1.000000 0.000000
1.19408393 -1.88380468 -0.27385476 1.000000 0.000000
1.20664203 -1.90361643 -0.19718410 1.000000 0.000000
1.21338904 -1.91426075 -0.11877842 1.000000 0.000000
1.22417891 -1.93128288 -0.03991242 1.000000 0.000000
1.24823213 -1.96922958 0.04069664 1.000000 0.000000
1.27488136 -2.01127195 0.12479789 1.000000 0.000000
1.31178904 -2.06949806 0.21436676 1.000000 0.000000
1.37630904 -2.17128563 0.31564680 1.000000 0.000000
1.20318401 -1.88416076 -0.35407686 1.000000 0.000000
1.20309663 -1.88402390 -0.27447149 1.000000 0.000000
1.20997810 -1.89480007 -0.19668999 1.000000 0.000000
1.21940660 -1.90956497 -0.11874006 1.000000 0.000000
1.23423123 -1.93278015 -0.04002865 1.000000 0.000000
1.25522423 -1.96565461 0.04070950 1.000000 0.000000
1.27984452 -2.00420952 0.12462523 1.000000 0.000000
1.30912387 -2.05006051 0.21280681 1.000000 0.000000
1.37538469 -2.15382338 0.31377688 1.000000 0.000000
1.21758282 -1.89268911 -0.35644469 1.000000 0.000000
1.20036137 -1.86591911 -0.27241871 1.000000 0.000000
1.20613658 -1.87489641 -0.19504257 1.000000 0.000000
1.22295225 -1.90103579 -0.11846400 1.000000 0.000000
1.23970008 -1.92706954 -0.03999625 1.000000 0.000000
1.25674224 -1.95356095 0.04054607 1.000000 0.000000
1.27338290 -1.97942829 0.12334908 1.000000 0.000000
1.32186270 -2.05478859 0.21375647 1.000000 0.000000
1.38393152 -2.15127230 0.31407943 1.000000 0.000000
1.22159636 -1.88500774 -0.35576743 1.000000 0.000000
1.21394742 -1.87320495 -0.27407512 1.000000 0.000000
1.22043586 -1.88321722 -0.19633274 1.000000 0.000000
1.23270261 -1.90214562 -0.11879005 1.000000 0.000000
1.23746073 -1.90948761 -0.03971722 1.000000 0.000000
1.27114868 -1.96147048 0.04079846 1.000000 0.000000
1.29140770 -1.99273169 0.12444720 1.000000 0.000000
1.32667589 -2.04715300 0.21342368 1.000000 0.000000
1.38150597 -2.13175941 0.31190512 1.000000 0.000000
1.22998369 -1.88407862 -0.35636839 1.000000 0.000000
1.22979724 -1.88379312 -0.27622604 1.000000 0.000000
1.23342752 -1.88935387 -0.19740255 1.000000 0.000000
1.24235630 -1.90303087 -0.11910480 1.000000 0.000000
1.25812793 -1.92718971 -0.04017294 1.000000 0.000000
1.26973617 -1.94497120 0.04054360 1.000000 0.000000
1.28827131 -1.97336304 0.12350667 1.000000 0.000000
1.33010149 -2.03743815 0.21287462 1.000000 0.000000
1.38550019 -2.12229753 0.31119862 1.000000 0.000000
1.24822223 -1.89808285 -0.35980684 1.000000 0.000000
1.23841441 -1.88316882 -0.27674180 1.000000 0.000000
1.24492490 -1.89306891 -0.19822569 1.000000 0.000000
1.24858499 -1.89863455 -0.11909098 1.000000 0.000000
1.26342118 -1.92119491 -0.04013605 1.000000 0.000000
1.28060114 -1.94731927 0.04068182 1.000000 0.000000
1.30407548 -1.98301494 0.12438370 1.000000 0.000000
1.34034109 -2.03816152 0.21341854 1.000000 0.000000
1.37984693 -2.09823537 0.30834699 1.000000 0.000000
1.25370717 -1.89257097 -0.35955679 1.000000 0.000000
1.24284935 -1.87618017 -0.27632561 1.000000 0.000000
1.25139070 -1.88907397 -0.19824560 1.000000 0.000000
1.26514995 -1.90984476 -0.12005953 1.000000 0.000000
1.26554012 -1.91043365 -0.03999966 1.000000 0.000000
1.28141868 -1.93440366 0.04050153 1.000000 0.000000
1.31483042 -1.98484123 0.12477408 1.000000 0.000000
1.34743547 -2.03406119 0.21346104 1.000000 0.000000
1.39449072 -2.10509491 0.31004038 1.000000 0.000000
1.47639549 -2.22873664 0.42342263 1.000000 0.000000
1.27514029 -1.91097844 -0.36386409 1.000000 0.000000
1.26312709 -1.89297497 -0.27942130 1.000000 0.000000
1.25647068 -1.88299942 -0.19804910 1.000000 0.000000
1.25972462 -1.88787591 -0.11894333 1.000000 0.000000
1.27261627 -1.90719593 -0.04002098 1.000000 0.000000
1.29354894 -1.93856645 0.04067926 1.000000 0.000000
1.31001210 -1.96323884 0.12369149 1.000000 0.000000
1.35664248 -2.03312087 0.21383850 1.000000 0.000000
1.39646125 -2.09279513 0.30891669 1.000000 0.000000
1.49058926 -2.23385930 0.42534295 1.000000 0.000000
1.27956438 -1.90375268 -0.36330310 1.000000 0.000000
1.27237129 -1.89305067 -0.28006062 1.000000 0.000000
1.26684165 -1.88482356 -0.19868658 1.000000 0.000000
1.27243459 -1.89314473 -0.11954341 1.000000 0.000000
1.28661442 -1.91424179 -0.04025912 1.000000 0.000000
1.30267382 -1.93813515 0.04076163 1.000000 0.000000
1.31949461 -1.96316135 0.12396464 1.000000 0.000000
1.35797286 -2.02040982 0.21297924 1.000000 0.000000
1.40510225 -2.09052944 0.30927593 1.000000 0.000000
1.47977149 -2.20162344 0.42014733 1.000000 0.000000
1.29285502 -1.90966570 -0.36525667 1.000000 0.000000
1.28085542 -1.89194131 -0.28053027 1.000000 0.000000
1.28163862 -1.89309812 -0.20001069 1.000000 0.000000
1.28462899 -1.89751506 -0.12009068 1.000000 0.000000
1.30114281 -1.92190754 -0.04051187 1.000000 0.000000
1.30622184 -1.92940974 0.04067001 1.000000 0.000000
1.33716142 -1.97511029 0.12500156 1.000000 0.000000
1.35761714 -2.00532556 0.21186779 1.000000 0.000000
1.40140831 -2.07000899 0.30693349 1.000000 0.000000
1.46589148 -2.16525650 0.41414285 1.000000 0.000000
1.28556800 -1.88525522 -0.28017640 1.000000 0.000000
1.28230023 -1.88046312 -0.19912888 1.000000 0.000000
1.29694486 -1.90193915 -0.12064520 1.000000 0.000000
1.29752994 -1.90279710 -0.04020052 1.000000 0.000000
1.31343555 -1.92612231 0.04069331 1.000000 0.000000
1.34232843 -1.96849322 0.12486690 1.000000 0.000000
1.37432015 -2.01540828 0.21341871 1.000000 0.000000
1.40655756 -2.06268358 0.30654487 1.000000 0.000000
1.47964895 -2.16987038 0.41597185 1.000000 0.000000
1.30424845 -1.89894009 -0.28285846 1.000000 0.000000
1.29745591 -1.88905025 -0.20049773 1.000000 0.000000
1.30083942 -1.89397645 -0.12041609 1.000000 0.000000
1.30367196 -1.89810061 -0.04019341 1.000000 0.000000
1.32712567 -1.93224835 0.04091651 1.000000 0.000000
1.34275031 -1.95499730 0.12429570 1.000000 0.000000
1.36777031 -1.99142551 0.21136352 1.000000 0.000000
1.41388595 -2.05856824 0.30663607 1.000000 0.000000
1.48530114 -2.16254640 0.41552016 1.000000 0.000000
1.31149697 -1.89584160 -0.28305033 1.000000 0.000000
1.31045246 -1.89433181 -0.20152350 1.000000 0.000000
1.30791688 -1.89066648 -0.12048377 1.000000 0.000000
1.31686783 -1.90360546 -0.04040325 1.000000 0.000000
1.33084106 -1.92380452 0.04083196 1.000000 0.000000
1.35603034 -1.96021712 0.12491593 1.000000 0.000000
1.38214374 -1.99796546 0.21254830 1.000000 0.000000
1.41210461 -2.04127550 0.30476373 1.000000 0.000000
1.48130226 -2.14130449 0.41239065 1.000000 0.000000
1.32346094 -1.89949250 -0.28425634 1.000000 0.000000
1.32287908 -1.89865744 -0.20245439 1.000000 0.000000
1.32046795 -1.89519691 -0.12105393 1.000000 0.000000
1.32929361 -1.90786386 -0.04058800 1.000000 0.000000
1.33385885 -1.91441619 0.04072739 1.000000 0.000000
1.35682547 -1.94737899 0.12438701 1.000000 0.000000
1.38290048 -1.98480296 0.21164010 1.000000 0.000000
1.43078291 -2.05352592 0.30730721 1.000000 0.000000
1.47787583 -2.12111616 0.40945458 1.000000 0.000000
1.33044374 -1.89593041 -0.28438920 1.000000 0.000000
1.32271993 -1.88492370 -0.20146172 1.000000 0.000000
1.32051301 -1.88177860 -0.12047897 1.000000 0.000000
1.33524489 -1.90277231 -0.04057469 1.000000 0.000000
1.34175873 -1.91205466 0.04077263 1.000000 0.000000
1.37443256 -1.95861614 0.12539841 1.000000 0.000000
1.39112592 -1.98240471 0.21188053 1.000000 0.000000
1.42910540 -2.03652692 0.30547863 1.000000 0.000000
1.48172677 -2.11151409 0.40855774 1.000000 0.000000
1.34655821 -1.90527606 -0.28646666 1.000000 0.000000
1.33816516 -1.89340055 -0.20284612 1.000000 0.000000
1.33564198 -1.88983047 -0.12128051 1.000000 0.000000
1.33934867 -1.89507520 -0.04050609 1.000000 0.000000
1.35559547 -1.91806304 0.04099744 1.000000 0.000000
1.36877704 -1.93671405 0.12428928 1.000000 0.000000
1.40210021 -1.98386371 0.21253772 1.000000 0.000000
1.43526602 -2.03079081 0.30533835 1.000000 0.000000
1.48905540 -2.10689855 0.40862840 1.000000 0.000000
1.60521758 -2.27125907 0.54061908 1.000000 0.000000
1.36794925 -1.92183912 -0.28964496 1.000000 0.000000
1.34511232 -1.88975525 -0.20293762 1.000000 0.000000
1.33192730 -1.87123156 -0.12037283 1.000000 0.000000
1.35071325 -1.89762402 -0.04065714 1.000000 0.000000
1.35584080 -1.90482771 0.04081148 1.000000 0.000000
1.38916647 -1.95164728 0.12554583 1.000000 0.000000
1.40506482 -1.97398293 0.21198268 1.000000 0.000000
1.43269610 -2.01280212 0.30335423 1.000000 0.000000
1.49463391 -2.09981894 0.40822497 1.000000 0.000000
1.59108067 -2.23531771 0.53333080 1.000000 0.000000
1.36476743 -1.90382528 -0.28761807 1.000000 0.000000
1.36242247 -1.90055418 -0.20458667 1.000000 0.000000
1.35923851 -1.89611256 -0.12226585 1.000000 0.000000
1.35575187 -1.89124870 -0.04061771 1.000000 0.000000
1.37057769 -1.91193044 0.04106189 1.000000 0.000000
1.38790441 -1.93610084 0.12484439 1.000000 0.000000
1.41587055 -1.97511303 0.21261263 1.000000 0.000000
1.44534075 -2.01622343 0.30459848 1.000000 0.000000
1.49064720 -2.07942510 0.40522957 1.000000 0.000000
1.57764375 -2.20078373 0.52635038 1.000000 0.000000
1.38315523 -1.91587758 -0.29013783 1.000000 0.000000
1.37073934 -1.89867973 -0.20487848 1.000000 0.000000
1.36184323 -1.88635719 -0.12193055 1.000000 0.000000
1.36839426 -1.89543140 -0.04080585 1.000000 0.000000
1.37499106 -1.90456903 0.04100256 1.000000 0.000000
1.39068055 -1.92630136 0.12451246 1.000000 0.000000
1.41841435 -1.96471679 0.21200426 1.000000 0.000000
1.45403874 -2.01406193 0.30500671 1.000000 0.000000
1.49883246 -2.07610798 0.40556017 1.000000 0.000000
1.58126986 -2.19029617 0.52510715 1.000000 0.000000
1.39916134 -1.92442000 -0.29214025 1.000000 0.000000
1.37861526 -1.89616060 -0.20510428 1.000000 0.000000
1.36479127 -1.87714708 -0.12163032 1.000000 0.000000
1.37309706 -1.88857090 -0.04075703 1.000000 0.000000
1.38823891 -1.90939724 0.04120648 1.000000 0.000000
1.41395485 -1.94476712 0.12601177 1.000000 0.000000
1.41680980 -1.94869387 0.21078670 1.000000 0.000000
1.46239638 -2.01139402 0.30534354 1.000000 0.000000
1.49930251 -2.06215501 0.40381423 1.000000 0.000000
1.57923377 -2.17209339 0.52200961 1.000000 0.000000
1.41919982 -1.93828428 -0.29496565 1.000000 0.000000
1.38874018 -1.89668381 -0.20566337 1.000000 0.000000
1.38449574 -1.89088702 -0.12282069 1.000000 0.000000
1.38941014 -1.89759874 -0.04105217 1.000000 0.000000
1.39507413 -1.90533447 0.04121952 1.000000 0.000000
1.41519415 -1.93281353 0.12554398 1.000000 0.000000
1.43228543 -1.95615613 0.21211213 1.000000 0.000000
1.47467494 -2.01405001 0.30649558 1.000000 0.000000
1.51041150 -2.06285739 0.40494117 1.000000 0.000000
1.58896971 -2.17014909 0.52281976 1.000000 0.000000
1.42879546 -1.93772590 -0.29560801 1.000000 0.000000
1.39428675 -1.89092541 -0.20554471 1.000000 0.000000
1.39511836 -1.89205325 -0.12319957 1.000000 0.000000
1.40209818 -1.90151918 -0.04123845 1.000000 0.000000
1.40809047 -1.90964592 0.04141469 1.000000 0.000000
1.41850781 -1.92377388 0.12526505 1.000000 0.000000
1.43650091 -1.94817615 0.21176790 1.000000 0.000000
1.47346187 -1.99830234 0.30484921 1.000000 0.000000
1.51369572 -2.05286741 0.40397409 1.000000 0.000000
1.58075249 -2.14380932 0.51774812 1.000000 0.000000
1.45367396 -1.95769036 -0.29939553 1.000000 0.000000
