//X Y Z isTree
1072
14.61542416 10.00226116 -2.17455196 0.000000
20.71424675 14.17607307 -2.19601631 0.000000
35.38151169 24.21381187 -2.24691582 0.000000
11.23095703 7.74147415 -2.16044879 0.000000
14.56443310 10.03923225 -2.17196107 0.000000
20.65330124 14.23627567 -2.19460297 0.000000
35.30232620 24.33381844 -2.24705553 0.000000
11.21683693 7.78734732 -2.16274309 0.000000
14.52667236 10.08521748 -2.17136049 0.000000
20.59892654 14.30091190 -2.19390798 0.000000
35.21189499 24.44604111 -2.24650383 0.000000
11.17829418 7.81626129 -2.16035247 0.000000
14.47833347 10.12376690 -2.16919637 0.000000
20.54202271 14.36371422 -2.19296432 0.000000
35.11222076 24.55171585 -2.24538398 0.000000
14.46014977 10.18340874 -2.17157555 0.000000
20.48998070 14.42985344 -2.19256091 0.000000
35.00698090 24.65329742 -2.24392724 0.000000
14.41166687 10.22172070 -2.16942906 0.000000
20.44518280 14.50109482 -2.19295764 0.000000
34.91193771 24.76188660 -2.24314427 0.000000
14.39392471 10.28184795 -2.17193532 0.000000
20.38139534 14.55880833 -2.19133925 0.000000
34.79248428 24.85291672 -2.24081039 0.000000
14.35077667 10.32386780 -2.17063546 0.000000
20.33288193 14.62735939 -2.19138384 0.000000
34.69244766 24.95755196 -2.23974442 0.000000
14.31349754 10.37005234 -2.17024374 0.000000
20.26470947 14.68167400 -2.18932962 0.000000
34.59840393 25.06635857 -2.23908591 0.000000
14.26371861 10.40709209 -2.16797447 0.000000
20.22001266 14.75292206 -2.18983221 0.000000
34.48817444 25.16325378 -2.23739982 0.000000
14.24408436 10.46612740 -2.17031169 0.000000
20.15445137 14.80888653 -2.18809676 0.000000
34.38747787 25.26688957 -2.23635030 0.000000
14.19281864 10.50191689 -2.16785336 0.000000
20.10206032 14.87443638 -2.18781114 0.000000
34.30188370 25.38153648 -2.23630571 0.000000
14.16175842 10.55259609 -2.16850090 0.000000
20.05194092 14.94164944 -2.18779635 0.000000
34.20895767 25.49071312 -2.23580694 0.000000
14.13005066 10.60283470 -2.16907716 0.000000
19.98519897 14.99639034 -2.18598795 0.000000
34.08747101 25.57837868 -2.23345923 0.000000
14.07972240 10.63904285 -2.16681480 0.000000
19.93564606 15.06394672 -2.18607998 0.000000
33.99111176 25.68465996 -2.23277569 0.000000
14.05392075 10.69375992 -2.16834974 0.000000
19.87504196 15.12310410 -2.18498206 0.000000
33.88117218 25.78050041 -2.23121953 0.000000
14.01057529 10.73513985 -2.16720319 0.000000
19.81959724 15.18610954 -2.18447208 0.000000
33.78453064 25.88628006 -2.23055840 0.000000
13.96228218 10.77262497 -2.16530776 0.000000
19.76414108 15.24906063 -2.18398285 0.000000
33.67942047 25.98542023 -2.22935820 0.000000
13.92463303 10.81824875 -2.16508198 0.000000
19.70418549 15.30846691 -2.18301702 0.000000
33.56518936 26.07728195 -2.22757173 0.000000
13.89752483 10.87210464 -2.16652274 0.000000
19.64915085 15.37163067 -2.18261743 0.000000
33.47904968 26.19083214 -2.22767043 0.000000
13.85416889 10.91326332 -2.16545606 0.000000
19.61438942 15.45072746 -2.18449807 0.000000
33.36181259 26.27990341 -2.22571993 0.000000
13.80245304 10.94771576 -2.16309762 0.000000
19.54009819 15.49865437 -2.18199944 0.000000
33.24966049 26.37269211 -2.22412419 0.000000
13.76696587 10.99496746 -2.16330147 0.000000
19.49403954 15.56888580 -2.18267274 0.000000
33.15565109 26.47971153 -2.22376227 0.000000
13.73020554 11.04120922 -2.16333008 0.000000
19.41777611 15.61489582 -2.17998362 0.000000
33.05029678 26.57755089 -2.22266030 0.000000
13.70238209 11.09468937 -2.16479492 0.000000
19.36508179 15.67972374 -2.17995739 0.000000
32.95560455 26.68384171 -2.22229624 0.000000
13.65919495 11.13574886 -2.16385818 0.000000
19.30779839 15.74081039 -2.17943788 0.000000
32.84268188 26.77521324 -2.22072268 0.000000
13.60898876 11.17098141 -2.16182613 0.000000
19.25279999 15.80372238 -2.17919850 0.000000
32.73604584 26.87148666 -2.21959162 0.000000
13.57840538 11.22228909 -2.16293263 0.000000
19.18300819 15.85438442 -2.17730355 0.000000
32.64364243 26.97933960 -2.21944737 0.000000
13.51852798 11.24929905 -2.15939045 0.000000
19.13021660 15.91900635 -2.17735720 0.000000
32.52424622 27.06470680 -2.21748686 0.000000
13.49261570 11.30451488 -2.16129351 0.000000
19.08527184 15.99020767 -2.17833161 0.000000
32.41046524 27.15445137 -2.21592402 0.000000
13.44801903 11.34410572 -2.16023040 0.000000
19.01895142 16.04347801 -2.17688918 0.000000
32.29684830 27.24407768 -2.21438909 0.000000
13.41913795 11.39696980 -2.16171718 0.000000
18.95665932 16.10002518 -2.17592573 0.000000
32.20486450 27.35181999 -2.21435738 0.000000
13.36934757 11.43206120 -2.15985870 0.000000
18.89686966 16.15861702 -2.17526937 0.000000
32.09840393 27.44718170 -2.21335244 0.000000
13.32517624 11.47185707 -2.15892434 0.000000
18.84226990 16.22161102 -2.17523265 0.000000
31.98579025 27.53707886 -2.21194124 0.000000
13.28804398 11.51768780 -2.15915275 0.000000
18.76907921 16.26848984 -2.17306805 0.000000
31.87808609 27.63099289 -2.21088719 0.000000
13.25184441 11.56434917 -2.15955877 0.000000
18.71783447 16.33429718 -2.17346334 0.000000
31.76618385 27.72106552 -2.20955992 0.000000
13.20278454 11.59974384 -2.15789008 0.000000
18.65985107 16.39422989 -2.17310095 0.000000
31.65497017 27.81152153 -2.20829773 0.000000
13.17219257 11.65135098 -2.15926242 0.000000
18.60089302 16.45326233 -2.17264700 0.000000
31.54702187 27.90465164 -2.20728159 0.000000
13.11424255 11.67869854 -2.15616965 0.000000
18.54257965 16.51282501 -2.17229033 0.000000
31.44078636 27.99913597 -2.20640445 0.000000
13.08302116 11.72978306 -2.15749049 0.000000
18.47507858 16.56411362 -2.17087650 0.000000
31.33876991 28.09725189 -2.20584393 0.000000
13.03261757 11.76364994 -2.15567064 0.000000
18.41643333 16.62325096 -2.17052245 0.000000
31.21897507 28.17922974 -2.20404983 0.000000
12.99137783 11.80571175 -2.15538430 0.000000
18.34768105 16.67317009 -2.16899586 0.000000
31.11523056 28.27548027 -2.20340610 0.000000
12.95024014 11.84784698 -2.15513754 0.000000
18.29162788 16.73454857 -2.16899014 0.000000
31.00191879 28.36287117 -2.20210361 0.000000
12.91086292 11.89158630 -2.15520763 0.000000
18.22166061 16.78311157 -2.16735387 0.000000
30.89344025 28.45448875 -2.20116258 0.000000
12.86068439 11.92531586 -2.15349364 0.000000
18.17775917 16.85567665 -2.16884184 0.000000
30.77132988 28.53330612 -2.19926620 0.000000
12.81883907 11.96669769 -2.15319300 0.000000
18.10984993 16.90598679 -2.16749024 0.000000
30.67261505 28.63363075 -2.19905996 0.000000
12.77682590 12.00790024 -2.15288663 0.000000
18.04954910 16.96330452 -2.16706800 0.000000
30.55327415 28.71453857 -2.19739389 0.000000
12.73306847 12.04743004 -2.15230751 0.000000
17.98553658 17.01706886 -2.16622066 0.000000
30.43901825 28.79996490 -2.19610906 0.000000
12.68624401 12.08399582 -2.15122890 0.000000
17.92108917 17.07032967 -2.16533947 0.000000
30.33518791 28.89509964 -2.19559526 0.000000
12.64772224 12.12844181 -2.15158033 0.000000
17.85779190 17.12460136 -2.16461682 0.000000
30.22221375 28.98137665 -2.19443917 0.000000
12.59810829 12.16220856 -2.15006518 0.000000
17.79234695 17.17672539 -2.16365266 0.000000
30.12029839 29.07812309 -2.19410563 0.000000
12.56073761 12.20775890 -2.15066051 0.000000
17.73852158 17.24003792 -2.16412425 0.000000
30.00297928 29.15984344 -2.19266915 0.000000
12.51289940 12.24311447 -2.14948583 0.000000
17.67308998 17.29204750 -2.16320252 0.000000
29.89270782 29.24820518 -2.19176483 0.000000
12.47797203 12.29109764 -2.15055299 0.000000
17.61051369 17.34677315 -2.16264987 0.000000
29.76698494 29.32118416 -2.18974233 0.000000
12.42376041 12.32004166 -2.14831710 0.000000
17.54227448 17.39582443 -2.16142011 0.000000
29.65816498 29.41056633 -2.18897891 0.000000
12.38006878 12.35931587 -2.14791536 0.000000
17.48308563 17.45377731 -2.16132569 0.000000
29.53687859 29.48736572 -2.18731189 0.000000
12.34235954 12.40457153 -2.14857674 0.000000
17.42540932 17.51324272 -2.16144228 0.000000
29.43226814 29.58062553 -2.18689728 0.000000
12.29695225 12.44209194 -2.14792204 0.000000
17.34155846 17.54623985 -2.15832663 0.000000
29.31310081 29.65908051 -2.18541932 0.000000
12.25664997 12.48476219 -2.14818192 0.000000
17.29234314 17.61417580 -2.15953946 0.000000
29.21610069 29.75984955 -2.18561435 0.000000
12.21128082 12.52225685 -2.14757657 0.000000
17.21525383 17.65366364 -2.15729213 0.000000
29.08824730 29.82901764 -2.18351936 0.000000
12.15662003 12.55011272 -2.14535165 0.000000
17.14260483 17.69748688 -2.15561152 0.000000
28.97722816 29.91518211 -2.18270230 0.000000
12.12311840 12.59978580 -2.14688253 0.000000
17.09559822 17.76777840 -2.15717959 0.000000
28.86341286 29.99829292 -2.18169308 0.000000
12.07915211 12.63863182 -2.14658880 0.000000
17.03784180 17.82699776 -2.15742159 0.000000
28.74914932 30.08074570 -2.18066740 0.000000
12.03622246 12.67854595 -2.14650178 0.000000
16.97670937 17.88268852 -2.15726066 0.000000
28.63144493 30.15939140 -2.17939711 0.000000
11.98723030 12.71202946 -2.14535379 0.000000
16.89179420 17.91314125 -2.15409017 0.000000
28.51209259 30.23605156 -2.17801666 0.000000
11.94158268 12.74898720 -2.14482236 0.000000
16.83769035 17.97613525 -2.15486455 0.000000
28.40448570 30.32499504 -2.17755103 0.000000
11.88935566 12.77883530 -2.14312530 0.000000
16.77571106 18.03075409 -2.15465713 0.000000
28.28201485 30.39787865 -2.17596340 0.000000
11.85123920 12.82381439 -2.14399290 0.000000
16.70538139 18.07631302 -2.15339637 0.000000
28.17634201 30.48864365 -2.17568588 0.000000
11.80149555 12.85619926 -2.14277959 0.000000
16.63903046 18.12606621 -2.15266514 0.000000
28.05093384 30.55785561 -2.17390108 0.000000
11.76026535 12.89782333 -2.14313316 0.000000
16.56436920 18.16662407 -2.15087414 0.000000
27.93510628 30.63723946 -2.17287326 0.000000
11.71616554 12.93630981 -2.14298892 0.000000
16.50740242 18.22651291 -2.15140009 0.000000
27.81371307 30.71028519 -2.17142773 0.000000
11.66486168 12.96677494 -2.14154482 0.000000
16.44475555 18.28015327 -2.15121102 0.000000
27.70600510 30.79826927 -2.17106843 0.000000
11.61284161 12.99632263 -2.13998222 0.000000
16.36664391 18.31646538 -2.14901471 0.000000
27.58330917 30.86941147 -2.16955185 0.000000
11.57496262 13.04167747 -2.14104795 0.000000
16.30571556 18.37188339 -2.14909029 0.000000
27.46448135 30.94462395 -2.16835403 0.000000
11.53049183 13.07964039 -2.14092159 0.000000
16.24093056 18.42293930 -2.14868093 0.000000
27.34717178 31.02132797 -2.16729164 0.000000
11.49450302 13.12728214 -2.14239955 0.000000
16.17546463 18.47316933 -2.14820194 0.000000
27.23336983 31.10183525 -2.16652489 0.000000
11.42840004 13.14042377 -2.13827872 0.000000
16.10935402 18.52260590 -2.14765763 0.000000
27.11696434 31.17920113 -2.16556859 0.000000
11.39255238 13.18824482 -2.13983274 0.000000
16.04578400 18.57491875 -2.14747334 0.000000
26.99655914 31.25175476 -2.16430879 0.000000
11.34855938 13.22670364 -2.13988709 0.000000
15.97506809 18.61888313 -2.14635181 0.000000
26.87850380 31.32679749 -2.16325283 0.000000
11.29820824 13.25770855 -2.13876271 0.000000
15.90718079 18.66603661 -2.14562726 0.000000
26.76759911 31.41002655 -2.16279054 0.000000
11.25024128 13.29143524 -2.13810635 0.000000
15.84055328 18.71459389 -2.14509177 0.000000
26.63758469 31.47059059 -2.16079879 0.000000
11.20304394 13.32602310 -2.13761592 0.000000
15.76250076 18.74949837 -2.14302278 0.000000
26.52107620 31.54682541 -2.15991569 0.000000
11.15395737 13.35830784 -2.13678384 0.000000
15.70701027 18.81117821 -2.14404130 0.000000
26.39663887 31.61338997 -2.15840149 0.000000
11.10992908 13.39662075 -2.13694191 0.000000
15.64008141 18.85918808 -2.14352465 0.000000
26.28256798 31.69215584 -2.15775061 0.000000
11.05965424 13.42736530 -2.13591909 0.000000
15.58149910 18.91727257 -2.14417648 0.000000
26.16342163 31.76462936 -2.15670037 0.000000
11.01384068 13.46347618 -2.13577724 0.000000
15.50333309 18.95149612 -2.14215183 0.000000
26.04243660 31.83464622 -2.15551376 0.000000
10.96170235 13.49179077 -2.13442659 0.000000
15.42662239 18.98726654 -2.14033675 0.000000
25.92027855 31.90298080 -2.15424418 0.000000
10.91388130 13.52533913 -2.13393307 0.000000
15.35873985 19.03375816 -2.13976073 0.000000
25.79964828 31.97295189 -2.15311575 0.000000
10.87224102 13.56655884 -2.13467312 0.000000
15.29484844 19.08515930 -2.13976216 0.000000
25.68166542 32.04599762 -2.15222430 0.000000
10.82769775 13.60419655 -2.13487101 0.000000
15.22553158 19.12974739 -2.13902593 0.000000
25.56360626 32.11877060 -2.15134311 0.000000
80.89706421 101.64114380 -2.26749325 0.000000
10.77706909 13.63415432 -2.13388991 0.000000
15.15413475 19.17161369 -2.13801384 0.000000
25.45026207 32.19732666 -2.15087724 0.000000
80.41699982 101.73618317 -2.26358557 0.000000
10.72808075 13.66611481 -2.13325071 0.000000
15.09003735 19.22265434 -2.13805175 0.000000
25.32113266 32.25568008 -2.14909196 0.000000
79.95832825 101.85603333 -2.26027489 0.000000
10.68033218 13.69961166 -2.13287759 0.000000
15.02414131 19.27139473 -2.13785791 0.000000
25.20055389 32.32463074 -2.14804435 0.000000
79.50669861 101.98285675 -2.25716138 0.000000
10.63610935 13.73762894 -2.13323259 0.000000
14.95766068 19.31935692 -2.13760304 0.000000
25.09088516 32.40745544 -2.14794588 0.000000
79.03620148 102.08338165 -2.25350833 0.000000
10.57913589 13.75909519 -2.13104582 0.000000
14.88893604 19.36437035 -2.13704824 0.000000
24.95883751 32.46116257 -2.14594698 0.000000
78.56727600 102.18364716 -2.24989390 0.000000
10.53817177 13.80133343 -2.13210344 0.000000
14.81330872 19.40027428 -2.13551736 0.000000
24.83841515 32.52967072 -2.14495850 0.000000
78.10948181 102.29621124 -2.24659348 0.000000
10.49197292 13.83676529 -2.13213086 0.000000
14.74368000 19.44389725 -2.13486576 0.000000
24.71259499 32.59085464 -2.14351726 0.000000
77.64613342 102.39935303 -2.24312878 0.000000
10.44230747 13.86759472 -2.13147426 0.000000
14.66666031 19.47762299 -2.13315749 0.000000
24.59263611 32.65951920 -2.14259839 0.000000
77.18376160 102.50160217 -2.23968720 0.000000
10.38622570 13.88978767 -2.12952113 0.000000
14.59952831 19.52435303 -2.13290262 0.000000
24.47637558 32.73293686 -2.14201880 0.000000
76.73876190 102.62487793 -2.23674607 0.000000
10.33136177 13.91344166 -2.12782478 0.000000
14.54179573 19.58371353 -2.13404894 0.000000
24.35183716 32.79508209 -2.14073062 0.000000
76.27285767 102.71810913 -2.23319197 0.000000
10.28768826 13.95211697 -2.12845254 0.000000
14.46644115 19.61932373 -2.13263202 0.000000
24.22334671 32.85159683 -2.13910604 0.000000
75.81058502 102.81398010 -2.22973752 0.000000
10.24038792 13.98589706 -2.12835622 0.000000
14.39045429 19.65388680 -2.13113236 0.000000
24.10735512 32.92482758 -2.13859963 0.000000
75.35733032 102.91992188 -2.22654319 0.000000
10.18502235 14.00857830 -2.12659907 0.000000
14.32190418 19.69848442 -2.13074946 0.000000
23.97864342 32.98045731 -2.13697886 0.000000
74.88397980 102.99614716 -2.22274804 0.000000
10.14757824 14.05591869 -2.12860870 0.000000
14.25755310 19.74885178 -2.13101482 0.000000
23.86193275 33.05235672 -2.13644171 0.000000
74.41580200 103.07704926 -2.21909714 0.000000
10.09802723 14.08656025 -2.12810993 0.000000
14.18571186 19.78880501 -2.13018179 0.000000
23.74298286 33.12102127 -2.13572240 0.000000
73.97038269 103.18731689 -2.21611905 0.000000
10.03957272 14.10464764 -2.12574506 0.000000
14.10743809 19.81961250 -2.12839460 0.000000
23.61871338 33.18205261 -2.13453960 0.000000
73.50862122 103.27263641 -2.21264601 0.000000
9.99525261 14.14251137 -2.12638903 0.000000
14.03627777 19.86025238 -2.12769294 0.000000
23.49343300 33.24139786 -2.13327789 0.000000
73.05699921 103.37001801 -2.20947194 0.000000
9.94128704 14.16669273 -2.12500119 0.000000
13.96985912 19.90755272 -2.12773061 0.000000
23.37475204 33.30986404 -2.13263035 0.000000
72.59838104 103.45530701 -2.20607996 0.000000
9.89275646 14.19854259 -2.12479162 0.000000
13.90154839 19.95214653 -2.12750316 0.000000
23.23966789 33.35464859 -2.13049698 0.000000
72.14542389 103.54646301 -2.20285296 0.000000
9.84660339 14.23381138 -2.12511706 0.000000
13.82739830 19.98827171 -2.12639976 0.000000
23.11819077 33.41862488 -2.12962055 0.000000
71.69214630 103.63497162 -2.19960999 0.000000
9.79993153 14.26835632 -2.12535691 0.000000
13.75387859 20.02516556 -2.12540674 0.000000
22.99708176 33.48294449 -2.12879372 0.000000
71.22752380 103.70477295 -2.19601059 0.000000
7.55112600 11.07354832 -2.12283874 0.000000
9.74568081 14.29181099 -2.12397146 0.000000
13.68923855 20.07494736 -2.12580705 0.000000
22.87455559 33.54499817 -2.12785077 0.000000
70.77901459 103.79576111 -2.19289970 0.000000
7.51270151 11.09695053 -2.12248421 0.000000
9.69289017 14.31729031 -2.12291646 0.000000
13.61214447 20.10638618 -2.12429166 0.000000
22.74577332 33.59759903 -2.12633801 0.000000
70.32514191 103.87670135 -2.18961573 0.000000
7.47400236 11.11991787 -2.12207222 0.000000
9.64536667 14.35050297 -2.12303400 0.000000
13.54718781 20.15568352 -2.12468910 0.000000
22.62381363 33.66000748 -2.12547517 0.000000
69.88005066 103.96845245 -2.18659902 0.000000
7.43919659 11.14869022 -2.12279105 0.000000
9.59402943 14.37801266 -2.12233305 0.000000
13.46771812 20.18328285 -2.12282658 0.000000
22.50440216 33.72603607 -2.12486815 0.000000
69.42234802 104.03923035 -2.18317986 0.000000
7.39595556 11.16478443 -2.12112212 0.000000
9.54790401 14.41332245 -2.12280774 0.000000
13.39787006 20.22515297 -2.12249374 0.000000
22.38027382 33.78480530 -2.12383127 0.000000
68.96796417 104.11264038 -2.17985582 0.000000
7.35682011 11.18699360 -2.12064338 0.000000
9.48988247 14.43059063 -2.12065291 0.000000
13.33124447 20.27187729 -2.12269449 0.000000
22.25208282 33.83716202 -2.12242055 0.000000
68.51190186 104.18118286 -2.17646909 0.000000
7.32549524 11.22113228 -2.12244701 0.000000
9.44059944 14.46103096 -2.12046289 0.000000
13.25791645 20.30836487 -2.12184858 0.000000
22.12185669 33.88607407 -2.12082410 0.000000
68.07339478 104.27424622 -2.17363286 0.000000
7.27999544 11.23353767 -2.12016463 0.000000
9.39903736 14.50336647 -2.12203765 0.000000
13.18587589 20.34672165 -2.12122512 0.000000
21.99927902 33.94641495 -2.11997223 0.000000
67.62389374 104.34835815 -2.17043924 0.000000
7.24972343 11.26943684 -2.12234068 0.000000
9.34167862 14.52130699 -2.12006807 0.000000
13.11504078 20.38686371 -2.12081409 0.000000
21.87974739 34.01129150 -2.11943078 0.000000
67.17237091 104.41706085 -2.16717148 0.000000
7.20135736 11.27717304 -2.11923862 0.000000
9.30054188 14.56445217 -2.12180257 0.000000
13.04714012 20.43154526 -2.12089944 0.000000
21.74933243 34.05899429 -2.11784744 0.000000
66.71501923 104.47431183 -2.16370511 0.000000
7.16612530 11.30538559 -2.12001324 0.000000
9.24627304 14.58705807 -2.12056756 0.000000
12.96921825 20.46043205 -2.11937237 0.000000
21.63180542 34.12665939 -2.11753321 0.000000
66.27256775 104.55258942 -2.16071224 0.000000
7.12668657 11.32697487 -2.11956906 0.000000
9.18486023 14.59818554 -2.11769652 0.000000
12.88974094 20.48662758 -2.11759734 0.000000
21.50676537 34.18230820 -2.11649990 0.000000
65.82794952 104.62526703 -2.15764117 0.000000
7.08149576 11.33931923 -2.11742401 0.000000
9.13769245 14.63182640 -2.11812043 0.000000
12.82359409 20.53391457 -2.11802888 0.000000
21.37958717 34.23428726 -2.11526799 0.000000
65.37660980 104.68498993 -2.15434003 0.000000
7.04021502 11.35779953 -2.11645532 0.000000
9.09215927 14.66814995 -2.11895394 0.000000
12.74825191 20.56643105 -2.11696219 0.000000
21.25383568 34.28827286 -2.11418867 0.000000
64.92058563 104.73473358 -2.15087199 0.000000
7.01087332 11.39560986 -2.11910892 0.000000
9.03244686 14.68151474 -2.11649776 0.000000
12.67656612 20.60473633 -2.11651826 0.000000
21.13605881 34.35496140 -2.11391926 0.000000
64.47977448 104.80667877 -2.14789772 0.000000
6.97635651 11.42516041 -2.12024236 0.000000
8.98206043 14.70989513 -2.11623573 0.000000
12.60277081 20.63952255 -2.11573935 0.000000
21.00547028 34.40060043 -2.11238217 0.000000
64.03314972 104.86691284 -2.14472032 0.000000
6.92595816 11.42859745 -2.11655903 0.000000
8.93720627 14.74738026 -2.11730576 0.000000
12.52915192 20.67448807 -2.11500525 0.000000
20.87418175 34.44471359 -2.11078143 0.000000
63.58794785 104.92714691 -2.14157987 0.000000
6.88099670 11.44077396 -2.11452961 0.000000
8.88300514 14.76943779 -2.11618471 0.000000
12.44947338 20.69927025 -2.11325860 0.000000
20.75110054 34.50207138 -2.11002111 0.000000
63.15102005 104.99881744 -2.13870907 0.000000
6.84743261 11.47187805 -2.11602306 0.000000
8.83388233 14.79988575 -2.11629152 0.000000
12.37901115 20.73923492 -2.11308932 0.000000
20.62479591 34.55384827 -2.10894632 0.000000
62.70766830 105.05757904 -2.13561153 0.000000
6.81617880 11.50700665 -2.11827540 0.000000
8.77831841 14.81947231 -2.11487198 0.000000
12.31368446 20.78784180 -2.11382341 0.000000
20.49954987 34.60713959 -2.10799241 0.000000
62.25773239 105.10289764 -2.13227749 0.000000
6.77529383 11.52594090 -2.11756730 0.000000
8.72798347 14.84780121 -2.11472654 0.000000
12.24434853 20.82974434 -2.11389804 0.000000
20.37305832 34.65808105 -2.10692263 0.000000
61.81488800 105.15776825 -2.12917399 0.000000
6.73673916 11.54881096 -2.11760736 0.000000
8.67542267 14.87230206 -2.11406159 0.000000
12.16766739 20.85906792 -2.11272192 0.000000
20.25106049 34.71644974 -2.10633159 0.000000
61.37177277 105.20980835 -2.12604928 0.000000
6.69605494 11.56800747 -2.11699867 0.000000
8.62434578 14.89929390 -2.11377621 0.000000
12.09189224 20.88977814 -2.11171412 0.000000
20.12238693 34.76314163 -2.10505915 0.000000
60.93191910 105.26509857 -2.12302661 0.000000
6.65650749 11.58913231 -2.11676836 0.000000
8.57210350 14.92422867 -2.11322427 0.000000
12.01923656 20.92576599 -2.11126661 0.000000
19.99878502 34.81834030 -2.10432959 0.000000
60.48406601 105.30413818 -2.11971188 0.000000
6.60792637 11.59438610 -2.11366963 0.000000
8.52173233 14.95238495 -2.11315346 0.000000
11.94566441 20.96007729 -2.11067557 0.000000
19.87291718 34.86937714 -2.10337520 0.000000
60.05797577 105.37880707 -2.11714959 0.000000
6.56733418 11.61350346 -2.11312866 0.000000
8.47644043 14.98951721 -2.11437297 0.000000
11.87764359 21.00411606 -2.11108828 0.000000
19.74447060 34.91561127 -2.10215902 0.000000
59.61003876 105.41284943 -2.11380625 0.000000
6.53069305 11.63961601 -2.11388397 0.000000
8.41741657 15.00231361 -2.11218500 0.000000
11.79182720 21.01650620 -2.10834789 0.000000
19.61225319 34.95480728 -2.10054803 0.000000
59.17493820 105.46714783 -2.11090469 0.000000
6.49158621 11.66136742 -2.11386943 0.000000
8.36877918 15.03352261 -2.11261654 0.000000
11.71808434 21.05015182 -2.10776997 0.000000
19.49187279 35.01484680 -2.10021710 0.000000
58.72980118 105.50113678 -2.10763216 0.000000
6.45107603 11.68057632 -2.11341906 0.000000
8.31494999 15.05538177 -2.11175895 0.000000
11.65135479 21.09640884 -2.10847831 0.000000
19.35591507 35.04659653 -2.09821701 0.000000
58.29679871 105.55451202 -2.10478187 0.000000
6.40923452 11.69731712 -2.11254787 0.000000
8.26961231 15.09264183 -2.11308432 0.000000
11.57465744 21.12458801 -2.10740423 0.000000
19.23717690 35.10924149 -2.09809422 0.000000
57.85599136 105.59136963 -2.10163689 0.000000
6.37326574 11.72478580 -2.11363769 0.000000
8.20925331 15.10242081 -2.11058784 0.000000
11.49650764 21.14992523 -2.10607457 0.000000
19.09976768 35.13750839 -2.09594488 0.000000
57.41743088 105.62983704 -2.09855938 0.000000
6.33097601 11.74063110 -2.11265564 0.000000
8.16184998 15.13593960 -2.11143613 0.000000
11.42618275 21.18955994 -2.10619473 0.000000
18.97751045 35.19330215 -2.09546566 0.000000
56.99015808 105.68676758 -2.09588218 0.000000
6.29132748 11.76132584 -2.11257219 0.000000
8.10940266 15.16012764 -2.11100554 0.000000
11.34973145 21.21776199 -2.10520363 0.000000
18.84756470 35.23459244 -2.09414983 0.000000
56.54863739 105.71488953 -2.09266806 0.000000
6.24290228 11.76547432 -2.10954571 0.000000
8.05453777 15.17971134 -2.10996032 0.000000
11.28008747 21.25863647 -2.10549474 0.000000
18.72108078 35.28205109 -2.09322810 0.000000
56.11526108 105.75572968 -2.08974051 0.000000
6.20828342 11.79557991 -2.11119962 0.000000
8.00315094 15.20578289 -2.10984254 0.000000
11.20467281 21.28859329 -2.10472918 0.000000
18.59575272 35.33145523 -2.09244847 0.000000
55.68918610 105.80802917 -2.08707285 0.000000
6.16583490 11.81084061 -2.11021900 0.000000
7.94482565 15.21855068 -2.10790610 0.000000
11.12570286 21.31161690 -2.10330558 0.000000
18.46874428 35.37742996 -2.09149218 0.000000
55.25113297 105.83518982 -2.08394265 0.000000
6.12062073 11.82067108 -2.10829687 0.000000
7.89659834 15.25059223 -2.10866499 0.000000
11.05629444 21.35286903 -2.10370660 0.000000
18.34652328 35.43238831 -2.09109306 0.000000
54.81843567 105.87008667 -2.08099914 0.000000
6.08954144 11.85784721 -2.11127424 0.000000
7.84561539 15.27735996 -2.10871720 0.000000
10.98405457 21.38867760 -2.10359454 0.000000
18.21691513 35.47285080 -2.08986449 0.000000
54.38742828 105.90582275 -2.07810521 0.000000
6.04460049 11.86808681 -2.10947704 0.000000
7.78645945 15.28808784 -2.10658264 0.000000
10.90811062 21.41719818 -2.10279059 0.000000
18.09205055 35.52228928 -2.08919168 0.000000
53.95421600 105.93476868 -2.07511210 0.000000
6.00014448 11.87911987 -2.10785055 0.000000
7.74144030 15.32654572 -2.10829353 0.000000
10.82752132 21.43638611 -2.10109830 0.000000
17.95899773 35.55532455 -2.08758140 0.000000
53.52190018 105.96295166 -2.07213759 0.000000
5.96971750 11.91800690 -2.11118722 0.000000
7.68102980 15.33448792 -2.10583162 0.000000
10.75158596 21.46457863 -2.10031676 0.000000
17.82959175 35.59518433 -2.08640027 0.000000
53.09738541 106.00417328 -2.06945062 0.000000
5.92221737 11.92284012 -2.10851407 0.000000
7.62600088 15.35296440 -2.10484576 0.000000
10.67191696 21.48512077 -2.09881353 0.000000
17.69791412 35.63013458 -2.08495903 0.000000
52.66324615 106.02371216 -2.06637335 0.000000
5.88812304 11.95463657 -2.11063409 0.000000
7.57028341 15.36992073 -2.10367894 0.000000
10.60138893 21.52396393 -2.09912419 0.000000
17.58073616 35.69410706 -2.08524156 0.000000
52.23897934 106.06062317 -2.06366754 0.000000
5.83697414 11.95171738 -2.10665178 0.000000
7.52438784 15.40684509 -2.10526800 0.000000
10.52054977 21.54174995 -2.09740686 0.000000
17.44797325 35.72626114 -2.08369064 0.000000
51.81098175 106.08753204 -2.06079960 0.000000
5.80266857 11.98319530 -2.10875893 0.000000
7.46903276 15.42443562 -2.10423779 0.000000
10.45155334 21.58369255 -2.09806681 0.000000
17.31971169 35.76725006 -2.08268261 0.000000
51.37425232 106.09390259 -2.05756569 0.000000
5.75610447 11.98934937 -2.10643387 0.000000
7.41667652 15.44814205 -2.10406780 0.000000
10.36849403 21.59646225 -2.09591722 0.000000
17.18900490 35.80285645 -2.08138847 0.000000
50.94839096 106.12004852 -2.05474830 0.000000
5.71497059 12.00668240 -2.10610080 0.000000
7.37052870 15.48487377 -2.10569310 0.000000
10.30269241 21.64510727 -2.09727407 0.000000
17.06648827 35.85528564 -2.08109832 0.000000
50.52596664 106.15088654 -2.05205393 0.000000
5.67624474 12.02908802 -2.10668087 0.000000
7.30985403 15.49102974 -2.10318542 0.000000
10.21757603 21.65306854 -2.09471416 0.000000
16.93748093 35.89387894 -2.08003044 0.000000
50.10205841 106.17619324 -2.04928398 0.000000
5.63602543 12.04835892 -2.10673451 0.000000
7.26109982 15.52234554 -2.10412025 0.000000
10.14614868 21.68983078 -2.09496784 0.000000
16.80955124 35.93445587 -2.07910395 0.000000
49.67505646 106.19236755 -2.04637027 0.000000
5.59706879 12.07035923 -2.10728836 0.000000
7.19840145 15.52371407 -2.10102224 0.000000
10.07520962 21.72769547 -2.09535050 0.000000
16.67729568 35.96542358 -2.07764912 0.000000
49.24975967 106.20957184 -2.04350829 0.000000
5.55440474 12.08435154 -2.10646796 0.000000
7.15093136 15.55780983 -2.10238004 0.000000
9.99592304 21.74747086 -2.09401393 0.000000
16.54831886 36.00308609 -2.07660770 0.000000
48.82287979 106.22073364 -2.04056168 0.000000
5.51312304 12.10129642 -2.10618782 0.000000
7.09088850 15.56448841 -2.10005808 0.000000
9.92026043 21.77495384 -2.09344578 0.000000
16.42174149 36.04569626 -2.07587814 0.000000
48.40060425 106.23924255 -2.03778863 0.000000
5.47241354 12.11947918 -2.10614705 0.000000
7.04320574 15.59823418 -2.10141301 0.000000
9.84897709 21.81203461 -2.09382415 0.000000
16.28882217 36.07403946 -2.07435346 0.000000
47.98643112 106.27313995 -2.03534126 0.000000
5.42899609 12.13160896 -2.10507989 0.000000
6.98787975 15.61508369 -2.10051489 0.000000
9.76682091 21.82489204 -2.09190321 0.000000
16.16223907 36.11606598 -2.07364249 0.000000
47.56100082 106.27958679 -2.03239918 0.000000
5.39036560 12.15442181 -2.10589075 0.000000
6.93523550 15.63785934 -2.10043907 0.000000
9.68956184 21.84842873 -2.09103346 0.000000
16.03614426 36.15896988 -2.07300735 0.000000
47.14229202 106.29840851 -2.02972507 0.000000
5.34386635 12.15941715 -2.10363984 0.000000
6.88664436 15.66984940 -2.10162258 0.000000
9.61647224 21.88129044 -2.09108114 0.000000
15.90415192 36.18825912 -2.07161760 0.000000
46.71809006 106.30219269 -2.02679515 0.000000
5.30699539 12.18628311 -2.10519767 0.000000
6.82296419 15.66735458 -2.09820795 0.000000
9.53682232 21.89910126 -2.08971548 0.000000
15.77925205 36.23339081 -2.07116103 0.000000
46.29960251 106.31629181 -2.02409267 0.000000
5.26047850 12.19096375 -2.10294771 0.000000
6.76624012 15.68051147 -2.09692001 0.000000
9.46059608 21.92458153 -2.08910847 0.000000
15.64666080 36.26055527 -2.06970358 0.000000
45.87606812 106.31609344 -2.02114916 0.000000
5.22128057 12.21252346 -2.10363483 0.000000
6.71946526 15.71676159 -2.09874320 0.000000
9.38310909 21.94699669 -2.08823490 0.000000
15.52029133 36.30180359 -2.06907606 0.000000
45.45379257 106.31596375 -2.01823807 0.000000
5.17677498 12.22162628 -2.10220146 0.000000
6.66783905 15.74181557 -2.09909153 0.000000
9.30915642 21.97758865 -2.08816409 0.000000
15.38582325 36.32373047 -2.06737399 0.000000
45.04071045 106.33467865 -2.01571536 0.000000
5.13564157 12.23861027 -2.10214925 0.000000
6.60905075 15.74985313 -2.09719682 0.000000
9.23740482 22.01341248 -2.08861351 0.000000
15.26345253 36.37392426 -2.06730652 0.000000
44.62531281 106.34539795 -2.01307106 0.000000
5.09338188 12.25288010 -2.10165524 0.000000
6.55590868 15.77120399 -2.09710121 0.000000
9.16310310 22.04319382 -2.08851242 0.000000
15.13243484 36.40330124 -2.06608081 0.000000
44.21097565 106.35601807 -2.01045465 0.000000
5.05043125 12.26541901 -2.10088968 0.000000
6.50534582 15.79880810 -2.09785962 0.000000
9.08122826 22.05456734 -2.08669353 0.000000
15.00363827 36.43766403 -2.06516433 0.000000
43.79594040 106.36231995 -2.00778699 0.000000
5.00709629 12.27693176 -2.09997416 0.000000
6.44933510 15.81316566 -2.09688306 0.000000
9.00297642 22.07445526 -2.08570766 0.000000
14.87029076 36.46055984 -2.06362462 0.000000
43.37928391 106.36193848 -2.00502300 0.000000
4.96315432 12.28683758 -2.09881043 0.000000
6.39455509 15.83042908 -2.09631729 0.000000
8.92883205 22.10431099 -2.08568811 0.000000
14.73477745 36.47757339 -2.06177998 0.000000
42.96508789 106.36483002 -2.00235057 0.000000
4.93016005 12.32397938 -2.10231948 0.000000
6.34047174 15.84935284 -2.09599638 0.000000
8.85549259 22.13618088 -2.08588195 0.000000
14.61528683 36.53400803 -2.06218839 0.000000
42.54436874 106.34867096 -1.99934983 0.000000
4.87802839 12.31322002 -2.09768224 0.000000
6.27877426 15.84901142 -2.09315562 0.000000
8.77560043 22.15155029 -2.08454609 0.000000
14.48487854 36.56302643 -2.06107354 0.000000
42.13781738 106.36514282 -1.99699223 0.000000
4.83953142 12.33667946 -2.09890294 0.000000
6.23179436 15.88576221 -2.09523797 0.000000
8.69832802 22.17332268 -2.08383870 0.000000
14.35149765 36.58408737 -2.05953646 0.000000
41.72848511 106.37206268 -1.99448407 0.000000
4.79982424 12.35716724 -2.09963870 0.000000
6.16916609 15.88254547 -2.09207368 0.000000
8.62269497 22.19916534 -2.08353877 0.000000
14.22723770 36.62808228 -2.05931640 0.000000
41.31517410 106.36608887 -1.99176359 0.000000
4.75980186 12.37692547 -2.10027242 0.000000
6.12115192 15.91684723 -2.09387684 0.000000
8.54836655 22.22834015 -2.08357501 0.000000
14.09232426 36.64430618 -2.05756044 0.000000
40.90034485 106.35327148 -1.98894453 0.000000
4.71768665 12.39126301 -2.10000944 0.000000
6.06284046 15.92438126 -2.09218216 0.000000
8.47414303 22.25779915 -2.08366156 0.000000
13.96298313 36.67453766 -2.05661774 0.000000
40.48696136 106.34121704 -1.98616934 0.000000
4.67325974 12.39943600 -2.09872723 0.000000
6.01054430 15.94761753 -2.09257555 0.000000
8.39218140 22.26675224 -2.08185387 0.000000
13.83605385 36.71083450 -2.05604005 0.000000
40.08153152 106.34725952 -1.98376107 0.000000
4.62753916 12.40398693 -2.09685993 0.000000
5.95392847 15.95933533 -2.09148216 0.000000
8.31979179 22.30096436 -2.08243299 0.000000
13.70577431 36.73793793 -2.05497313 0.000000
39.66882706 106.33114624 -1.98096859 0.000000
4.58168364 12.40794659 -2.09492040 0.000000
5.90036631 15.97915459 -2.09147501 0.000000
8.24075413 22.31730652 -2.08136702 0.000000
13.57386971 36.76025391 -2.05366397 0.000000
39.26403046 106.33338928 -1.97854650 0.000000
4.54780436 12.44443893 -2.09849548 0.000000
5.85092449 16.01024818 -2.09296536 0.000000
8.16231728 22.33505440 -2.08045840 0.000000
13.44810104 36.79887390 -2.05329108 0.000000
38.85366058 106.31768799 -1.97581923 0.000000
4.50395012 12.45379734 -2.09751534 0.000000
5.79367590 16.01999664 -2.09168863 0.000000
8.08011723 22.34219933 -2.07858872 0.000000
13.32234478 36.83739471 -2.05293655 0.000000
38.44934464 106.31564331 -1.97337449 0.000000
4.46199512 12.46833992 -2.09743333 0.000000
5.73890305 16.03645897 -2.09131384 0.000000
8.00136089 22.35854149 -2.07760143 0.000000
13.18145657 36.83349991 -2.05024481 0.000000
38.04024506 106.29746246 -1.97065854 0.000000
4.42303896 12.49134445 -2.09879661 0.000000
5.68078232 16.04340553 -2.08972430 0.000000
7.92398119 22.37854576 -2.07697988 0.000000
13.06237698 36.89016724 -2.05094981 0.000000
37.63156128 106.27732849 -1.96793509 0.000000
4.37902021 12.50007153 -2.09778452 0.000000
5.62873983 16.06744385 -2.09038544 0.000000
7.84868193 22.40434837 -2.07692075 0.000000
12.92438221 36.89311981 -2.04869342 0.000000
37.23264694 106.28195190 -1.96569812 0.000000
4.33735991 12.51547718 -2.09791732 0.000000
5.57425070 16.08453369 -2.09016538 0.000000
7.77600336 22.43770218 -2.07758427 0.000000
12.79935455 36.93261337 -2.04849195 0.000000
36.82119370 106.24777222 -1.96277153 0.000000
4.28972340 12.51346779 -2.09515786 0.000000
5.51656580 16.09226418 -2.08875489 0.000000
7.69588232 22.44950676 -2.07627630 0.000000
12.67166042 36.96425247 -2.04787874 0.000000
36.42395401 106.25158691 -1.96057510 0.000000
4.25075674 12.53666592 -2.09664392 0.000000
5.46324062 16.11261749 -2.08900738 0.000000
7.61971998 22.47267723 -2.07604456 0.000000
12.54185772 36.98943329 -2.04693246 0.000000
36.01970291 106.23213959 -1.95797670 0.000000
4.20659018 12.54455662 -2.09559298 0.000000
5.40283823 16.11191177 -2.08655548 0.000000
7.53730583 22.47714806 -2.07411146 0.000000
12.40676403 36.99845505 -2.04511857 0.000000
35.61398697 106.20516968 -1.95526779 0.000000
4.15835285 12.54002953 -2.09249616 0.000000
5.34742689 16.12583160 -2.08602452 0.000000
7.46532059 22.51260376 -2.07506180 0.000000
12.27896118 37.02873611 -2.04450512 0.000000
35.21563339 106.19712067 -1.95293486 0.000000
4.11644936 12.55440331 -2.09257960 0.000000
5.29772472 16.15707207 -2.08775640 0.000000
7.38435173 22.52089691 -2.07353258 0.000000
12.15311909 37.06474686 -2.04423213 0.000000
34.81529236 106.18015289 -1.95046520 0.000000
4.07612228 12.57365227 -2.09349823 0.000000
5.23831511 16.15867805 -2.08568287 0.000000
7.30806160 22.54324532 -2.07332253 0.000000
12.02061367 37.08009720 -2.04284430 0.000000
34.40690994 106.13530731 -1.94751143 0.000000
4.03664684 12.59568596 -2.09490180 0.000000
5.18666124 16.18411446 -2.08670974 0.000000
7.22919178 22.55749321 -2.07239199 0.000000
11.89193153 37.10680008 -2.04210734 0.000000
34.01222229 106.12949371 -1.94530129 0.000000
3.99547887 12.61257744 -2.09547114 0.000000
5.13748074 16.21754837 -2.08878779 0.000000
7.15010977 22.57083893 -2.07140422 0.000000
11.75891590 37.11951447 -2.04062605 0.000000
33.61598587 106.11599731 -1.94297707 0.000000
3.95078039 12.61827374 -2.09420514 0.000000
5.07836342 16.21962547 -2.08685040 0.000000
7.07566595 22.59874916 -2.07177663 0.000000
11.63196754 37.15098190 -2.04020023 0.000000
33.21337128 106.07913971 -1.94025242 0.000000
3.90595460 12.62337971 -2.09286737 0.000000
5.01903248 16.22065735 -2.08480644 0.000000
7.00214291 22.62973213 -2.07245326 0.000000
11.50051308 37.16769791 -2.03898931 0.000000
32.81904221 106.06555939 -1.93798041 0.000000
3.86006498 12.62481403 -2.09094763 0.000000
4.96514225 16.23910522 -2.08502603 0.000000
6.91819143 22.62679100 -2.07004786 0.000000
11.37274361 37.19594955 -2.03843594 0.000000
32.41730118 106.02474213 -1.93523788 0.000000
3.82510710 12.66215611 -2.09499645 0.000000
4.90585136 16.23971748 -2.08298111 0.000000
6.83835697 22.63684273 -2.06885839 0.000000
11.23996067 37.20735931 -2.03698444 0.000000
32.02405548 106.00842285 -1.93296933 0.000000
3.77354884 12.64447498 -2.08996582 0.000000
4.85563850 16.27036095 -2.08481169 0.000000
6.76385164 22.66443443 -2.06929564 0.000000
11.10357380 37.20605469 -2.03486347 0.000000
31.62846565 105.98121643 -1.93052888 0.000000
3.73326063 12.66427231 -2.09115767 0.000000
4.80023193 16.28374100 -2.08445215 0.000000
6.68785715 22.68709755 -2.06930590 0.000000
10.98017597 37.24785233 -2.03512454 0.000000
31.23363686 105.95330048 -1.92810190 0.000000
3.69016027 12.67459488 -2.09080720 0.000000
4.74156189 16.28584290 -2.08267450 0.000000
6.60902691 22.70002556 -2.06845236 0.000000
10.85127163 37.27086258 -2.03438258 0.000000
30.84007645 105.92640686 -1.92572010 0.000000
3.64744878 12.68621635 -2.09069514 0.000000
4.68380928 16.29078865 -2.08128715 0.000000
6.52855539 22.70701218 -2.06708288 0.000000
10.71848488 37.28003311 -2.03291011 0.000000
30.44526291 105.89187622 -1.92322564 0.000000
3.60348797 12.69342136 -2.08987975 0.000000
4.62941742 16.30729675 -2.08140135 0.000000
6.45438766 22.73582458 -2.06772399 0.000000
10.59410000 37.31811523 -2.03303838 0.000000
30.05257225 105.86132050 -1.92082977 0.000000
3.56389022 12.71606922 -2.09162951 0.000000
4.57577038 16.32649040 -2.08188128 0.000000
6.37598133 22.74969673 -2.06702995 0.000000
10.46098709 37.32512283 -2.03149796 0.000000
29.65842438 105.82216644 -1.91830432 0.000000
3.51740026 12.71408367 -2.08935142 0.000000
4.52001762 16.33816910 -2.08142638 0.000000
6.29650640 22.75951004 -2.06599188 0.000000
10.33363914 37.35223389 -2.03107643 0.000000
29.26805115 105.79303741 -1.91598654 0.000000
3.47409439 12.72339535 -2.08895564 0.000000
4.46967983 16.36959076 -2.08350849 0.000000
6.21784878 22.77202034 -2.06522346 0.000000
10.20104408 37.35992813 -2.02962351 0.000000
28.88145065 105.77435303 -1.91388369 0.000000
3.43298864 12.74080753 -2.08991313 0.000000
4.40969324 16.36564064 -2.08111215 0.000000
6.14122820 22.79186630 -2.06514430 0.000000
10.07077980 37.37556458 -2.02862716 0.000000
28.48997498 105.73449707 -1.91142344 0.000000
3.38832641 12.74500465 -2.08872628 0.000000
4.35402584 16.37742996 -2.08074331 0.000000
6.06311560 22.80607986 -2.06457853 0.000000
9.94075966 37.39162445 -2.02767849 0.000000
28.10128784 105.70146179 -1.90911222 0.000000
3.34872150 12.76828766 -2.09069014 0.000000
4.29581165 16.37943268 -2.07915616 0.000000
5.98568487 22.82272530 -2.06425714 0.000000
9.81403732 37.41979218 -2.02741027 0.000000
27.71160698 105.66116333 -1.90669537 0.000000
3.29939747 12.75433445 -2.08658242 0.000000
4.24541426 16.41131020 -2.08138394 0.000000
5.90385485 22.82226944 -2.06241393 0.000000
9.68607998 37.44305038 -2.02689934 0.000000
27.32234764 105.61878967 -1.90426707 0.000000
3.26200414 12.78644562 -2.09003448 0.000000
4.18351746 16.39860535 -2.07798219 0.000000
5.82847404 22.84652710 -2.06282830 0.000000
9.55344105 37.44770050 -2.02540588 0.000000
26.93509293 105.58052063 -1.90193820 0.000000
3.21634650 12.78630447 -2.08823681 0.000000
4.13042831 16.42015648 -2.07894635 0.000000
5.75169659 22.86536598 -2.06277657 0.000000
9.42069817 37.45116043 -2.02387309 0.000000
26.54681778 105.53455353 -1.89949596 0.000000
3.17484832 12.80262089 -2.08915162 0.000000
4.07370090 16.42725563 -2.07810426 0.000000
5.67240238 22.87404251 -2.06183195 0.000000
9.29466152 37.48085403 -2.02378225 0.000000
26.16181564 105.49788666 -1.89724684 0.000000
3.12883806 12.80064297 -2.08710527 0.000000
4.01722527 16.43519592 -2.07739305 0.000000
5.59395027 22.88586426 -2.06119537 0.000000
9.16442108 37.49330521 -2.02278423 0.000000
25.77431488 105.44738770 -1.89477372 0.000000
3.08573413 12.81036282 -2.08699155 0.000000
3.96336627 16.45383453 -2.07805800 0.000000
5.51523733 22.89639664 -2.06046700 0.000000
9.03301430 37.50037766 -2.02152038 0.000000
25.39028549 105.40725708 -1.89251232 0.000000
3.04327369 12.82277584 -2.08733964 0.000000
3.90568399 16.45652580 -2.07673216 0.000000
5.43613672 22.90505981 -2.05959463 0.000000
8.90517235 37.52177429 -2.02105308 0.000000
25.00886917 105.37439728 -1.89040625 0.000000
2.99772859 12.82206154 -2.08557558 0.000000
3.84885550 16.46255112 -2.07585239 0.000000
5.35864544 22.92031479 -2.05933928 0.000000
8.77103806 37.51600266 -2.01914692 0.000000
24.62447929 105.32527924 -1.88803339 0.000000
2.95901656 12.85069180 -2.08860707 0.000000
3.79345918 16.47458649 -2.07575464 0.000000
5.27883291 22.92540741 -2.05819511 0.000000
8.64468288 37.54293442 -2.01902485 0.000000
24.24028397 105.27295685 -1.88562799 0.000000
2.90954661 12.83245754 -2.08404636 0.000000
3.73984313 16.49445343 -2.07666612 0.000000
5.19910765 22.93049049 -2.05707502 0.000000
8.51718044 37.56473923 -2.01865053 0.000000
23.86023521 105.23475647 -1.88350034 0.000000
2.86978650 12.85684013 -2.08643150 0.000000
3.68171263 16.49432564 -2.07508421 0.000000
5.12603664 22.96499634 -2.05861712 0.000000
8.38241863 37.55381012 -2.01654172 0.000000
23.47784996 105.18237305 -1.88114321 0.000000
2.82242155 12.84707928 -2.08330035 0.000000
3.62767911 16.51244545 -2.07582211 0.000000
5.04231834 22.95159149 -2.05588841 0.000000
8.25765324 37.58713150 -2.01683283 0.000000
23.10035133 105.14803314 -1.87913322 0.000000
2.78000450 12.85958290 -2.08380461 0.000000
3.56902885 16.50940514 -2.07392383 0.000000
4.96751451 22.97843742 -2.05678964 0.000000
8.12681103 37.59252548 -2.01564884 0.000000
22.71684265 105.08223724 -1.87658572 0.000000
2.74025989 12.88475513 -2.08638310 0.000000
3.51702619 16.53712654 -2.07591319 0.000000
4.88700533 22.97879410 -2.05534339 0.000000
7.99575377 37.59618759 -2.01439667 0.000000
22.33876610 105.03732300 -1.87443531 0.000000
2.69538784 12.88595104 -2.08510160 0.000000
3.45885658 16.53589630 -2.07429147 0.000000
4.81018543 22.99625015 -2.05545068 0.000000
7.86549330 37.60288620 -2.01333117 0.000000
21.96054459 104.98767090 -1.87222505 0.000000
2.64924908 12.88072109 -2.08280635 0.000000
3.40221763 16.54167557 -2.07357383 0.000000
4.73229027 23.00852585 -2.05511808 0.000000
7.73927927 37.62858582 -2.01330638 0.000000
21.58280563 104.93620300 -1.87000597 0.000000
2.60852170 12.90176868 -2.08478379 0.000000
3.34463930 16.54261208 -2.07227373 0.000000
4.65444803 23.02093506 -2.05482125 0.000000
7.60800695 37.62926102 -2.01196647 0.000000
21.20561218 104.88311768 -1.86778271 0.000000
2.56343675 12.90131664 -2.08331037 0.000000
3.28903461 16.55311966 -2.07219696 0.000000
4.57568502 23.02860069 -2.05412436 0.000000
7.47991705 37.64508057 -2.01146007 0.000000
20.82998085 104.83355713 -1.86564589 0.000000
2.52038431 12.91095448 -2.08349037 0.000000
3.23385119 16.56576920 -2.07241154 0.000000
4.49444056 23.02327919 -2.05229425 0.000000
7.35004759 37.65145111 -2.01047254 0.000000
20.45257950 104.77065277 -1.86329556 0.000000
2.47293115 12.89768219 -2.07999897 0.000000
3.17687011 16.56910706 -2.07148504 0.000000
4.41598797 23.03178215 -2.05172062 0.000000
7.22049904 37.65883255 -2.00956249 0.000000
20.07614326 104.70802307 -1.86097407 0.000000
2.43286395 12.92284679 -2.08272982 0.000000
3.12037015 16.57472992 -2.07086825 0.000000
4.34025431 23.05449104 -2.05243587 0.000000
7.09147692 37.66838837 -2.00879240 0.000000
19.70288467 104.65746307 -1.85889089 0.000000
2.38813972 12.92345047 -2.08152485 0.000000
3.06655478 16.59470177 -2.07206726 0.000000
4.26272440 23.06778908 -2.05233574 0.000000
6.95954990 37.66169357 -2.00717974 0.000000
19.33283806 104.61990356 -1.85706210 0.000000
2.34702277 12.94366074 -2.08350110 0.000000
3.00950217 16.59718704 -2.07110596 0.000000
4.18281555 23.06792450 -2.05108857 0.000000
6.82949352 37.66416550 -2.00607967 0.000000
18.95637894 104.54306793 -1.85455966 0.000000
2.30123115 12.93807125 -2.08134770 0.000000
2.95180821 16.59577179 -2.06968284 0.000000
4.10363865 23.07163811 -2.05018401 0.000000
6.70211172 37.68087387 -2.00576162 0.000000
18.58493233 104.48893738 -1.85248375 0.000000
2.25867510 12.95050716 -2.08211827 0.000000
2.89810658 16.61679840 -2.07108188 0.000000
4.02701998 23.08962250 -2.05057049 0.000000
6.57272577 37.68587112 -2.00484324 0.000000
18.21439934 104.43541718 -1.85044181 0.000000
2.21526718 12.95815563 -2.08214211 0.000000
2.84238005 16.62643814 -2.07108378 0.000000
3.94833422 23.09569359 -2.04992247 0.000000
6.44526148 37.70141220 -2.00450921 0.000000
17.84110069 104.36110687 -1.84805489 0.000000
2.16926289 12.95031357 -2.07970166 0.000000
2.78506160 16.62657928 -2.06992650 0.000000
3.86916304 23.09856987 -2.04901505 0.000000
6.31619120 37.70711899 -2.00367546 0.000000
17.47185898 104.30549622 -1.84602225 0.000000
2.12482047 12.95135593 -2.07871342 0.000000
2.72647357 16.61859512 -2.06778288 0.000000
3.79028296 23.10280037 -2.04825139 0.000000
6.18642902 37.70796204 -2.00260663 0.000000
17.10222244 104.24266815 -1.84388506 0.000000
2.08515429 12.98187447 -2.08247781 0.000000
2.67271876 16.63996696 -2.06931543 0.000000
3.71267104 23.11456108 -2.04817915 0.000000
6.05680084 37.70877838 -2.00156045 0.000000
16.73272514 104.17556000 -1.84169531 0.000000
2.03971767 12.97670937 -2.08054066 0.000000
2.61566067 16.64086533 -2.06832504 0.000000
3.63344669 23.11603355 -2.04721856 0.000000
5.92969275 37.72478104 -2.00134325 0.000000
16.36629105 104.12254333 -1.83977771 0.000000
1.99368298 12.96711922 -2.07791972 0.000000
2.56047010 16.65356255 -2.06882429 0.000000
3.55634236 23.13081551 -2.04746008 0.000000
5.79928160 37.71912384 -2.00000024 0.000000
15.99801636 104.05274200 -1.83758616 0.000000
1.95338249 12.99493217 -2.08131528 0.000000
2.50282598 16.65011978 -2.06734276 0.000000
3.47811508 23.13825989 -2.04707527 0.000000
5.67006254 37.72025299 -1.99904096 0.000000
15.63015079 103.98002625 -1.83536613 0.000000
1.90848362 12.99243355 -2.07987857 0.000000
2.44572639 16.64983559 -2.06627750 0.000000
3.39810109 23.13334274 -2.04562068 0.000000
5.54449797 37.74542236 -1.99937844 0.000000
15.26295853 103.90603638 -1.83314681 0.000000
1.86368823 12.99023247 -2.07851410 0.000000
2.38736105 16.64032364 -2.06409216 0.000000
3.32074642 23.14618111 -2.04575992 0.000000
5.41404152 37.73681259 -1.99794960 0.000000
14.89913559 103.84957123 -1.83125889 0.000000
1.82006228 12.99596691 -2.07844353 0.000000
2.33510184 16.67355347 -2.06723142 0.000000
3.24211144 23.14996147 -2.04512191 0.000000
5.28421307 37.73137665 -1.99671257 0.000000
14.53716946 103.80116272 -1.82953548 0.000000
1.77588093 12.99761868 -2.07774377 0.000000
2.27519155 16.65205765 -2.06360888 0.000000
3.16492963 23.16402245 -2.04541516 0.000000
5.15558529 37.73357010 -1.99590278 0.000000
14.17127419 103.71913147 -1.82724190 0.000000
1.73309028 13.00948906 -2.07870078 0.000000
2.22071290 16.66984177 -2.06487846 0.000000
3.08362770 23.14733505 -2.04301715 0.000000
5.02698135 37.73517227 -1.99508476 0.000000
13.80668163 103.64022827 -1.82502615 0.000000
1.68659127 12.99310970 -2.07516861 0.000000
2.16483092 16.67735672 -2.06489873 0.000000
3.00654125 23.16170120 -2.04338408 0.000000
4.89782143 37.73168564 -1.99402094 0.000000
13.44418240 103.57087708 -1.82300091 0.000000
1.64405739 13.00691223 -2.07648087 0.000000
2.10763335 16.67447853 -2.06365585 0.000000
2.92635417 23.15176582 -2.04163051 0.000000
4.77090406 37.74486923 -1.99386096 0.000000
13.08364773 103.51090240 -1.82116282 0.000000
1.60331535 13.03574181 -2.08021355 0.000000
2.05228019 16.68604660 -2.06422424 0.000000
2.84879684 23.16211891 -2.04168963 0.000000
4.63936949 37.72035217 -1.99173319 0.000000
