# .PCD v0.7 - Point Cloud Data file format
VERSION 0.7
FIELDS x y z
SIZE 4 4 4
TYPE F F F
COUNT 1 1 1
WIDTH 1472
HEIGHT 1
VIEWPOINT 0 0 0 1 0 0 0
POINTS 1472
DATA ascii
-1.9312767 -2.0343521 0.54524952
-1.9099741 -2.0119123 0.64045721
-1.9127127 -2.0147972 0.74439037
-1.8361138 -1.9471432 -0.32861009
-1.8337787 -1.944667 -0.23384941
-1.9350595 -2.052072 -0.1478181
-1.9331211 -2.0500164 -0.049183346
-1.9331882 -2.0500877 0.049185056
-1.9255788 -2.0420182 0.14709388
-1.9339517 -2.0508974 0.24662378
-1.9347762 -2.0517716 0.34626773
-1.9297348 -2.0464253 0.44549996
-1.9241213 -2.0404725 0.54515785
-1.9221419 -2.0383735 0.64682543
-1.9215418 -2.0377371 0.75048119
-1.837413 -1.9616563 -0.33001786
-1.8261621 -1.9496447 -0.23371039
-1.9307153 -2.0612676 -0.14801337
-1.927494 -2.0578284 -0.049215447
-1.9388689 -2.0699725 0.049505886
-1.9354749 -2.066349 0.14837824
-1.9251955 -2.0553746 0.24638458
-1.9292622 -2.0597162 0.34651491
-1.937986 -2.06903 0.44900385
-1.9171573 -2.0467927 0.54512602
-1.9278355 -2.058193 0.65105987
-1.9206818 -2.0505557 0.75282627
-1.8399762 -1.977641 -0.3316673
-1.8266647 -1.9633335 -0.23461585
-1.9422483 -2.0875649 -0.14943324
-1.9325935 -2.0771878 -0.049523201
-1.9368892 -2.081805 0.049633279
-1.922986 -2.0668614 0.14795123
-1.9303257 -2.0747504 0.24793001
-1.931121 -2.0756052 0.34809673
-1.9273977 -2.0716033 0.4481574
-1.9267887 -2.0709486 0.54983586
-1.9342575 -2.0789764 0.65557909
-1.9363877 -2.0812659 0.76171315
-1.8282642 -1.9783119 -0.33074993
-1.8309333 -1.9811999 -0.23601595
-1.9510075 -2.1111288 -0.1506509
-1.9384807 -2.0975738 -0.049853999
-1.9449686 -2.1045942 0.050020851
-1.9426026 -2.1020341 0.1500019
-1.9373348 -2.096334 0.2497316
-1.9414704 -2.1008089 0.35122997
-1.935073 -2.0938866 0.45157188
-1.9335693 -2.0922594 0.55376953
-1.9399742 -2.09919 0.6598984
-1.9419705 -2.1013501 0.76667637
-1.8354632 -1.9995098 -0.33326322
-1.832973 -1.9967971 -0.23714055
-1.9621545 -2.1375244 -0.15206417
-1.9673184 -2.1431499 -0.050780162
-1.9428074 -2.1164482 0.050147489
-1.9507209 -2.1250689 0.15117809
-1.9531859 -2.1277542 0.25269306
-1.9409833 -2.1144609 0.35242242
-1.9466527 -2.1206369 0.4559308
-1.9446498 -2.1184552 0.55897403
-1.9413911 -2.1149051 0.66278869
-1.9387244 -2.112 0.76818615
-1.8295381 -2.0065181 -0.33340704
-1.8173662 -1.9931688 -0.23598468
-1.9750566 -2.1661134 -0.15362605
-1.9727582 -2.1635926 -0.05110753
-1.9739245 -2.1648717 0.051137745
-1.960835 -2.1505158 0.15251985
-1.9654747 -2.1556044 0.25521654
-1.9673201 -2.1576283 0.35851583
-1.9628888 -2.1527686 0.46142146
-1.9573193 -2.1466601 0.56468141
-1.9563709 -2.1456201 0.67035502
-1.9539726 -2.1429896 0.77707052
-1.8322908 -2.0231197 -0.33514294
-1.8171619 -2.0064154 -0.23683034
-74.657684 -82.433113 -5.8285723
-1.8291095 -2.033267 -0.3358061
-1.8346291 -2.0394027 -0.23999664
-74.410355 -82.715729 -5.8308821
-1.8385895 -2.0576386 -0.33881119
-1.829993 -2.048018 -0.2402871
-13.362032 -14.953981 -1.0509874
-13.364614 -14.956871 -0.35011211
-13.352975 -14.943845 0.3498072
-13.360735 -14.952529 1.0508853
-1.8359084 -2.0685554 -0.33959329
-1.8320788 -2.0642405 -0.24146838
-13.263028 -14.943724 -1.0471352
-13.274754 -14.956935 -0.3490698
-13.268462 -14.949846 0.34890434
-13.267572 -14.948844 1.0474941
-1.8382889 -2.0852785 -0.34132496
-1.8317522 -2.0778637 -0.24234219
-13.180396 -14.951294 -1.0445633
-13.182884 -14.954116 -0.34797049
-13.177608 -14.948131 0.34783122
-13.186632 -14.958368 1.0450574
-1.8392354 -2.1005077 -0.34280643
-1.8326167 -2.0929489 -0.24338359
-13.097757 -14.958358 -1.0419828
-13.102947 -14.964285 -0.3471829
-13.100801 -14.961834 0.34712604
-13.110296 -14.972677 1.0429803
-1.8496276 -2.1267211 -0.34607047
-1.8475999 -2.1243896 -0.246318
-13.009666 -14.958651 -1.0389589
-13.016446 -14.966446 -0.34621859
-13.010395 -14.959488 0.34605762
-13.014356 -14.964043 1.0393335
-1.8543746 -2.1466725 -0.34830332
-1.8676884 -2.1620848 -0.2499612
-12.932275 -14.970738 -1.0367811
-12.938956 -14.978474 -0.34549129
-12.924664 -14.961927 0.34510964
-12.926455 -14.964002 1.0363145
-1.8778002 -2.188581 -0.3540796
-1.862878 -2.1711891 -0.25029024
-12.839071 -14.963971 -1.0333254
-12.852015 -14.979057 -0.34450889
-12.840078 -14.965144 0.34418893
-12.850136 -14.976866 1.0342159
-1.8965701 -2.225513 -0.35902384
-1.8882868 -2.2157929 -0.25470084
-12.770173 -14.985044 -1.0318182
-12.768807 -14.983441 -0.34362316
-12.76173 -14.975137 0.34343269
-12.763136 -14.976786 1.0312495
-12.672821 -14.972202 -2.4084752
-12.685606 -14.987307 -1.7178613
-12.680449 -14.981215 -1.0286213
-12.688752 -14.991024 -0.34281945
-12.6804 -14.981156 0.34259382
-12.679311 -14.97987 1.0285289
-12.59685 -14.984037 -2.4035714
-12.591146 -14.977251 -1.7118603
-12.594809 -14.981607 -1.025743
-12.598717 -14.986257 -0.34174255
-12.600069 -14.987865 0.34177923
-12.593477 -14.980024 1.0256346
-12.51189 -14.984689 -2.3969331
-12.513318 -14.986399 -1.7081008
-12.518255 -14.992311 -1.0235965
-12.51404 -14.987264 -0.34080681
-12.523166 -14.998193 0.3410553
-12.511455 -14.984167 1.0230404
-12.428949 -14.987208 -2.3906569
-12.430489 -14.989064 -1.7036448
-12.444334 -15.005759 -1.0216602
-12.434504 -14.993906 -0.3400079
-12.429488 -14.987858 0.33987075
-12.440309 -15.000906 1.0213298
-12.431763 -15.093305 -2.4009182
-12.426142 -15.086479 -1.7099719
-12.425076 -15.085187 -1.024226
-12.41369 -15.071362 -0.34081858
-12.40863 -15.065219 0.34067968
-12.404302 -15.059963 1.0225134
-12.431931 -15.197052 -2.4107776
-12.434139 -15.199752 -1.7180759
-12.433252 -15.198668 -1.0290947
-12.42969 -15.194313 -0.34265462
-12.415721 -15.177238 0.34226954
-12.413719 -15.17479 1.027478
-12.441988 -15.313827 -2.4226711
-12.450773 -15.32464 -1.727464
-12.429084 -15.297944 -1.0329891
-12.44029 -15.311737 -0.34436014
-12.426956 -15.295325 0.34399104
-12.423418 -15.290971 1.0325183
-12.448613 -15.427383 -2.4340191
-12.441583 -15.418671 -1.7333516
-12.436122 -15.411903 -1.0378629
-12.42942 -15.403599 -0.34548691
-12.431104 -15.405684 0.3455337
-12.429694 -15.403938 1.0373265
-12.446862 -15.531481 -2.4438448
-12.45656 -15.543583 -1.7426891
-12.45138 -15.537119 -1.0434779
-12.443962 -15.527862 -0.34733626
-12.43318 -15.514408 0.34703535
-12.430265 -15.510772 1.0417085
-12.466828 -15.663728 -2.4580629
-12.458353 -15.653079 -1.7502724
-12.453437 -15.646902 -1.0480409
-12.449316 -15.641725 -0.34894758
-12.436898 -15.626122 0.34859952
-12.44184 -15.632332 1.0470649
-12.465002 -15.769657 -2.4681137
-12.466841 -15.771984 -1.7588842
-12.45558 -15.757737 -1.0526615
-12.460245 -15.763638 -0.35073337
-12.448656 -15.748979 0.35040718
-12.428059 -15.722919 1.0503356
-12.467868 -15.882454 -2.4792111
-12.467154 -15.881544 -1.7664309
-12.458064 -15.869966 -1.0573624
-12.457199 -15.868864 -0.35214332
-12.451887 -15.862098 0.35199314
-12.451244 -15.861279 1.0567837
-30.236088 -38.783897 -6.0382104
-42.078827 -53.974606 -5.9876208
-68.890991 -88.366631 -5.872149
-12.459775 -15.982182 -0.35372889
-12.466319 -15.990576 0.35391468
-12.461364 -15.98422 1.0621852
-30.109934 -38.890289 -6.0390224
-41.916939 -54.140335 -5.9903812
-68.626579 -88.638771 -5.8749104
-29.984671 -38.997913 -6.0400901
-41.737423 -54.283485 -5.9907031
-68.351814 -88.898033 -5.8768716
-29.866165 -39.114487 -6.0426021
-41.560654 -54.430279 -5.9914913
-68.069054 -89.147232 -5.8782253
-29.730318 -39.208424 -6.0416803
-41.386589 -54.580742 -5.9927454
-67.79705 -89.410927 -5.8805909
-29.614523 -39.328903 -6.0449114
-41.210094 -54.728142 -5.9937253
-67.51152 -89.657166 -5.8818655
-29.481255 -39.426319 -6.0446572
-41.035465 -54.87817 -5.9950542
-67.243729 -89.927399 -5.8847699
-29.349165 -39.525299 -6.0447121
-40.853317 -55.018242 -5.9953589
-66.961494 -90.178818 -5.886498
-29.22006 -39.628334 -6.0454531
-40.684662 -55.176659 -5.9977236
-66.685402 -90.438942 -5.8888502
-29.100977 -39.745129 -6.0483518
-40.504147 -55.319191 -5.9984212
-66.405952 -90.695 -5.8909926
-28.972277 -39.848972 -6.0493374
-40.327217 -55.466751 -5.9997268
-66.121674 -90.944885 -5.8927908
-28.834301 -39.94006 -6.0484552
-40.155762 -55.62207 -6.0019302
-65.856949 -91.222267 -5.8964233
-28.704956 -40.043106 -6.0494514
-39.974503 -55.764 -6.002749
-65.557175 -91.451561 -5.8970032
-28.578617 -40.150475 -6.0511622
-39.793087 -55.905827 -6.0036206
-65.274986 -91.705688 -5.8992443
-28.456545 -40.264046 -6.0538654
-39.618855 -56.057941 -6.0056572
-64.99118 -91.958031 -5.9014268
-28.31786 -40.354198 -6.0531111
-39.446259 -56.212658 -6.0080295
-64.702408 -92.203789 -5.9032431
-28.18651 -40.454815 -6.0539937
-39.256889 -56.343628 -6.007926
-64.423065 -92.463493 -5.9060082
-28.055754 -40.556377 -6.0550814
-39.081558 -56.494881 -6.0100484
-64.138542 -92.716347 -5.9083896
-27.918814 -40.649044 -6.0549073
-38.905975 -56.646057 -6.0122199
-63.847111 -92.959679 -5.9102216
-27.791525 -40.755848 -6.0569024
-38.72073 -56.783363 -6.01298
-63.556862 -93.205177 -5.9122486
-21.530607 -31.802868 -6.082839
-27.652187 -40.845058 -6.0563474
-38.533356 -56.917637 -6.013484
-63.261276 -93.44326 -5.9138627
-21.420477 -31.869848 -6.0818791
-27.514894 -40.937256 -6.0563054
-38.353653 -57.063393 -6.0152636
-62.972828 -93.692337 -5.9162307
-21.32086 -31.952513 -6.0839782
-27.386833 -41.043285 -6.0583735
-38.169075 -57.202095 -6.0163608
-62.685249 -93.943268 -5.9187713
-21.215458 -32.026608 -6.0845089
-27.260153 -41.151611 -6.0608377
-37.987499 -57.34549 -6.0180125
-62.396545 -94.193108 -5.921298
-21.108805 -32.098846 -6.0847526
-27.126268 -41.249229 -6.0617857
-37.814651 -57.502388 -6.0211387
-62.093449 -94.421646 -5.922544
-20.999474 -32.167004 -6.0842915
-26.997046 -41.354084 -6.063859
-37.620747 -57.627476 -6.0209956
-61.809765 -94.680229 -5.9257312
-20.900068 -32.250443 -6.0867848
-26.850296 -41.432106 -6.0620651
-37.434059 -57.763683 -6.022079
-61.507427 -94.910774 -5.9272203
-20.793407 -32.3228 -6.0872498
-26.715635 -41.528748 -6.0630646
-37.248039 -57.901089 -6.0233502
-61.215862 -95.158432 -5.9298358
-20.685991 -32.394012 -6.0875649
-26.58259 -41.628017 -6.0645118
-37.065914 -58.044777 -6.0253363
-60.911049 -95.385971 -5.9312553
-20.577641 -32.463783 -6.0876765
-26.447397 -41.724052 -6.0655499
-36.880943 -58.184269 -6.0269461
-60.618938 -95.633904 -5.9340005
-20.476553 -32.545109 -6.0900183
-26.316095 -41.826382 -6.067565
-36.681801 -58.301472 -6.0263128
-60.321617 -95.874222 -5.9363294
-20.364029 -32.608307 -6.0890341
-26.184446 -41.928368 -6.0695901
-36.499802 -58.446037 -6.0285726
-60.018486 -96.105797 -5.9381752
-20.255423 -32.677753 -6.0892859
-26.039206 -42.008636 -6.0685372
-36.313717 -58.584347 -6.0302463
-59.721897 -96.348389 -5.9407587
-20.150444 -32.753117 -6.0907059
-25.902906 -42.103336 -6.0696373
-36.118401 -58.707897 -6.0304646
-59.415428 -96.575569 -5.9424496
-20.043722 -32.825745 -6.0916805
-25.770903 -42.205189 -6.0718303
-35.932129 -58.846302 -6.0322723
-59.116833 -96.816055 -5.9450178
-19.94463 -32.911045 -6.0950661
-25.631422 -42.294941 -6.0723443
-35.74371 -58.981434 -6.0338058
-58.815479 -97.052635 -5.9474025
-19.833914 -32.977299 -6.0949864
-25.49684 -42.392887 -6.0740995
-35.550827 -59.109375 -6.034667
-58.504524 -97.273857 -5.948905
-19.723494 -33.044044 -6.0950661
-25.348219 -42.46751 -6.0725803
-35.364567 -59.248547 -6.036736
-58.195126 -97.498062 -5.9506502
-19.615089 -33.114204 -6.0958424
-25.209673 -42.558983 -6.0735397
-35.175743 -59.383709 -6.0384569
-57.899158 -97.745392 -5.9538641
-19.505774 -33.18288 -6.0964112
-25.077715 -42.66177 -6.0761747
-34.988857 -59.52243 -6.0406003
-57.58709 -97.966148 -5.9555163
-19.402557 -33.262062 -6.0989723
-24.93273 -42.742512 -6.0757341
-34.790607 -59.642002 -6.040863
-57.280235 -98.196274 -5.9577975
-19.286522 -33.319317 -6.0975795
-24.796412 -42.838184 -6.0774817
-34.598679 -59.772541 -6.0423012
-56.966164 -98.41452 -5.9594173
-19.176476 -33.386887 -6.0981445
-24.656591 -42.927952 -6.078455
-34.403393 -59.897465 -6.0432348
-56.666252 -98.657845 -5.9626136
-19.072268 -33.464752 -6.1006522
-24.514261 -43.013428 -6.078886
-34.204697 -60.016544 -6.0436449
-56.352852 -98.878334 -5.9644866
-18.954479 -33.518818 -6.0988889
-24.379763 -43.112808 -6.0813441
-34.010872 -60.144314 -6.0449944
-56.04842 -99.115189 -5.9674044
-18.858595 -33.611774 -6.1042633
-24.237669 -43.198925 -6.0819945
-33.831177 -60.297489 -6.048955
-55.737911 -99.34198 -5.9697742
-18.739803 -33.664051 -6.1023126
-24.097103 -43.287868 -6.0831075
-33.62381 -60.401573 -6.0480528
-55.419319 -99.554871 -5.9713678
-18.625931 -33.725067 -6.1020179
-23.958187 -43.379921 -6.0847216
-33.4259 -60.522652 -6.0489211
-55.101578 -99.769745 -5.9731417
-18.51553 -33.792393 -6.1029334
-23.81776 -43.469414 -6.0860386
-33.229046 -60.645794 -6.0500593
-54.796799 -100.00876 -5.976418
-18.410498 -33.869682 -6.1057096
-23.669113 -43.54393 -6.0853262
-33.04166 -60.786549 -6.0530152
-54.47184 -100.21152 -5.9775872
-18.297508 -33.932468 -6.1059341
-23.530272 -43.636555 -6.0872111
-32.842457 -60.905872 -6.0538983
-54.162144 -100.44293 -5.980525
-18.179865 -33.986576 -6.1046681
-23.376215 -43.700958 -6.085228
-32.645195 -61.028969 -6.0552201
-53.834538 -100.64165 -5.981576
-18.065886 -34.047478 -6.1046929
-23.241627 -43.801826 -6.088388
-32.451096 -61.158253 -6.0572181
-53.524857 -100.87446 -5.9847131
-17.957571 -34.119144 -6.1067133
-23.09931 -43.888382 -6.0896201
-32.251644 -61.277699 -6.0583043
-53.21381 -101.10554 -5.9878039
-17.851772 -34.195824 -6.1096902
-22.953896 -43.969158 -6.0901151
-32.05159 -61.396172 -6.0593591
-52.890781 -101.31452 -5.989645
-17.734148 -34.249939 -6.1087012
-22.811346 -44.055527 -6.0914502
-31.851879 -61.515495 -6.0605612
-52.562737 -101.51435 -5.9910059
-17.624033 -34.318588 -6.1103716
-22.66617 -44.136944 -6.0921655
-31.657562 -61.645531 -6.0628815
-52.2458 -101.7362 -5.9937267
-17.507383 -34.374565 -6.1098523
-22.528992 -44.234154 -6.0951228
-31.45631 -61.762341 -6.0639629
-51.932331 -101.96562 -5.9969516
-17.397865 -34.444614 -6.1119008
-22.380816 -44.309952 -6.0951934
-31.252937 -61.875145 -6.0647159
-51.600914 -102.16045 -5.9982009
-17.288412 -34.514992 -6.114069
-22.228262 -44.377026 -6.0941339
-31.052002 -61.99295 -6.0660243
-51.280624 -102.37785 -6.0008368
-17.166084 -34.559662 -6.111752
-22.090656 -44.474072 -6.0972552
-30.854856 -62.118618 -6.0681639
-50.953148 -102.58155 -6.0027294
-17.057186 -34.631378 -6.1142869
-21.9398 -44.544601 -6.0968051
-30.648361 -62.225677 -6.0685501
-50.627583 -102.7897 -6.0049424
-16.941036 -34.688496 -6.1143079
-21.797527 -44.632652 -6.0988202
-30.453398 -62.35643 -6.0713096
-50.306976 -103.00864 -6.0078459
-16.824326 -34.744453 -6.1141944
-21.649668 -44.709423 -6.0993571
-30.252266 -62.474926 -6.072937
-49.979752 -103.21479 -6.0100617
-16.711636 -34.808784 -6.1156206
-21.499577 -44.78162 -6.0993385
-30.049223 -62.589741 -6.0742698
-49.651783 -103.42005 -6.0122867
-16.594547 -34.864017 -6.1155148
-21.363108 -44.882435 -6.1032796
-29.844185 -62.700603 -6.075284
-49.323227 -103.62475 -6.0145388
-16.483265 -34.931545 -6.117631
-21.204578 -44.937016 -6.1009994
-29.643064 -62.819962 -6.0771847
-49.387703 -104.66306 -6.0651584
-16.364838 -34.984013 -6.1171765
-21.062233 -45.025898 -6.1034446
-29.439575 -62.934601 -6.078692
-49.055077 -104.86774 -6.0674548
-16.250719 -35.045734 -6.1184072
-20.919411 -45.114071 -6.105855
-29.236671 -63.050789 -6.0804124
-48.734035 -105.09813 -6.0712967
-16.137438 -35.109406 -6.1200428
-20.761 -45.168652 -6.1037869
-29.026815 -63.152172 -6.0807695
-48.395023 -105.2906 -6.0730076
-16.019077 -35.162094 -6.1198306
-20.617706 -45.256149 -6.1062346
-28.824343 -63.269829 -6.0827589
-48.052013 -105.47483 -6.074307
-15.905993 -35.226452 -6.1217155
-20.469687 -45.333508 -6.107378
-28.621923 -63.387985 -6.0848579
-47.724167 -105.69306 -6.0776258
-15.78993 -35.284355 -6.1225429
-20.3255 -45.41959 -6.1097603
-28.411514 -63.488686 -6.0853462
-47.384903 -105.88683 -6.0795984
-15.671164 -35.33625 -6.1223965
-20.171394 -45.483631 -6.1092424
-28.203751 -63.595451 -6.0864816
-47.045795 -106.08159 -6.0816898
-15.556588 -35.397667 -6.1239662
-20.024603 -45.564251 -6.1110187
-27.998783 -63.708801 -6.0883112
-46.705555 -106.27444 -6.083734
-15.44275 -35.460949 -6.1259222
-19.873476 -45.635155 -6.1115575
-27.790037 -63.813835 -6.0894103
-46.369652 -106.47792 -6.0864482
-15.321426 -35.507095 -6.1249857
-19.724066 -45.710129 -6.1127071
-27.583912 -63.925159 -6.0911741
-46.030773 -106.67539 -6.0888801
-15.204963 -35.564514 -6.1260619
-19.575039 -45.786156 -6.1140628
-27.377769 -64.036797 -6.0930305
-45.68927 -106.86752 -6.0910683
-15.087246 -35.619095 -6.1267157
-19.428104 -45.867321 -6.1161685
-27.163946 -64.130669 -6.0932627
-45.354179 -107.07553 -6.094223
-14.967191 -35.668179 -6.126492
-19.270348 -45.922993 -6.1149421
-26.962873 -64.254982 -6.0964503
-45.003845 -107.24826 -6.0954313
-14.854448 -35.734833 -6.1293516
-19.121881 -46.000847 -6.1167383
-26.74719 -64.344788 -6.0964279
-44.666279 -107.45212 -6.0984716
-14.732847 -35.780293 -6.1286421
-18.969889 -46.0704 -6.1174946
-26.539881 -64.454933 -6.0983992
-44.323109 -107.6434 -6.1008596
-14.615568 -35.836277 -6.1298032
-18.818256 -46.140953 -6.1184511
-26.32967 -64.558372 -6.0997987
-43.975986 -107.82581 -6.1028075
-14.495659 -35.885883 -6.1299405
-18.666857 -46.212223 -6.1195679
-26.120043 -64.663551 -6.1014276
-43.638222 -108.03208 -6.1061664
-14.381557 -35.950024 -6.1326261
-18.51556 -46.283924 -6.1208072
-25.904491 -64.754265 -6.1017575
-43.282646 -108.19498 -6.1071372
-14.2562 -35.986073 -6.1305871
-18.365582 -46.359138 -6.1225762
-25.694906 -64.860115 -6.1035795
-42.93977 -108.39029 -6.1100006
-14.142529 -36.051674 -6.1336503
-18.213366 -46.428917 -6.123693
-25.48958 -64.977211 -6.1065221
-42.591801 -108.57363 -6.1122513
-14.024566 -36.10659 -6.1349587
-18.057068 -46.488365 -6.1235137
-25.272726 -65.065254 -6.1067986
-42.246796 -108.76541 -6.1150393
-13.905951 -36.159969 -6.1360722
-17.909918 -46.571571 -6.1265302
-25.058783 -65.160934 -6.1078587
-41.903412 -108.96241 -6.1181817
-13.784938 -36.207184 -6.1362066
-17.752546 -46.628407 -6.126142
-24.848505 -65.266479 -6.1099081
-41.549091 -109.13184 -6.1198382
-13.668993 -36.267864 -6.1386895
-17.60005 -46.698116 -6.1275139
-24.637688 -65.371048 -6.1119299
-41.203079 -109.32391 -6.122828
-13.544618 -36.306259 -6.1374664
-17.449883 -46.774292 -6.1297975
-24.42058 -65.459198 -6.1124821
-40.849995 -109.49813 -6.1248803
-13.425561 -36.358906 -6.1387229
-17.287695 -46.818279 -6.1279316
-24.202269 -65.544228 -6.1128101
-40.500481 -109.6828 -6.1275802
-13.305788 -36.409752 -6.1397409
-17.138115 -46.896477 -6.1306109
-23.99621 -65.662865 -6.1163368
-40.145649 -109.85394 -6.1295867
-13.178526 -36.440025 -6.1373601
-16.982491 -46.958389 -6.131227
-23.774187 -65.738152 -6.115891
-39.791855 -110.02871 -6.1318598
-13.058934 -36.491436 -6.1386104
-16.828896 -47.026085 -6.1326642
-23.56424 -65.847099 -6.1186414
-39.442783 -110.21755 -6.1349797
-12.941525 -36.549168 -6.1409883
-16.67589 -47.095684 -6.1344147
-23.350597 -65.946243 -6.1205454
-39.082928 -110.37715 -6.1365347
-12.825418 -36.610935 -6.1441069
-16.517962 -47.151524 -6.1344395
-23.134338 -66.038376 -6.1218624
-38.732746 -110.56498 -6.1397228
-12.703773 -36.657127 -6.1446757
-16.362062 -47.21323 -6.1352959
-22.916981 -66.127647 -6.1229811
-38.371021 -110.72076 -6.1411943
-12.579425 -36.695511 -6.1440053
-16.206581 -47.27631 -6.1363974
-22.693499 -66.199333 -6.1225386
-38.018383 -110.90364 -6.1442337
-12.454524 -36.732182 -6.1431193
-16.051779 -47.341579 -6.1378493
-22.482513 -66.30777 -6.1255617
-37.66222 -111.07735 -6.1468267
-12.336694 -36.789822 -6.1458073
-15.895867 -47.403797 -6.1389718
-22.263956 -66.394371 -6.1266317
-37.304543 -111.2476 -6.149292
-12.211575 -36.825851 -6.1449513
-15.741691 -47.471451 -6.1408629
-22.045004 -66.480042 -6.1276822
-36.943272 -111.40802 -6.1512785
-12.090902 -36.875328 -6.146409
-15.586267 -47.535637 -6.1423717
-21.830595 -66.579842 -6.1301003
-36.588531 -111.5892 -6.1544738
-11.970391 -36.92551 -6.1480489
-15.424038 -47.579102 -6.1412711
-21.612213 -66.667992 -6.1315103
-36.225159 -111.74509 -6.1563382
-11.848074 -36.970284 -6.1488552
-15.26652 -47.637077 -6.1421132
-21.391499 -66.749229 -6.1323509
-35.867012 -111.91808 -6.1592093
-11.726219 -37.01664 -6.149991
-15.114228 -47.711708 -6.1451674
-21.17421 -66.841507 -6.1342716
-35.502728 -112.07292 -6.1611452
-11.606321 -37.069412 -6.1522589
-14.955773 -47.76722 -6.145824
-20.957161 -66.935043 -6.1363726
-35.145603 -112.25149 -6.1644492
-11.476421 -37.090187 -6.1492863
-14.795844 -47.818096 -6.1459527
-20.737822 -67.021736 -6.1379118
-34.779423 -112.40222 -6.1662884
-11.35118 -37.125774 -6.1488419
-14.63619 -47.869904 -6.1462693
-20.516481 -67.102295 -6.1389546
-34.416138 -112.56326 -6.1687574
-11.234598 -37.189964 -6.1532001
-14.479992 -47.933212 -6.1481304
-20.294676 -67.181602 -6.1399508
-34.054264 -112.73006 -6.1716065
-11.110312 -37.228992 -6.1534595
-14.318267 -47.978367 -6.1477299
-20.075693 -67.270645 -6.1419024
-33.690712 -112.89253 -6.174283
-10.98747 -37.272961 -6.154603
-14.16147 -48.040173 -6.1495304
-19.85327 -67.348549 -6.1429033
-33.325432 -113.05037 -6.1767697
-10.862929 -37.311275 -6.154881
-14.003609 -48.098675 -6.1509748
-19.632162 -67.431259 -6.1444092
-32.958729 -113.20448 -6.1791172
-10.738124 -37.348713 -6.1550832
-13.846334 -48.159512 -6.1527834
-19.411808 -67.517014 -6.1462584
-32.587669 -113.34452 -6.1807628
-10.614964 -37.391987 -6.1563148
-13.685627 -48.208622 -6.1531606
-19.19066 -67.600502 -6.1479669
-32.220116 -113.49772 -6.1831913
-10.492987 -37.439678 -6.15834
-13.526925 -48.264977 -6.15453
-18.970161 -67.686806 -6.1499968
-31.854128 -113.65766 -6.1860514
-10.370969 -37.487553 -6.1604605
-13.366843 -48.316628 -6.1553674
-18.743185 -67.75029 -6.1500201
-31.483046 -113.80058 -6.1880503
-10.243211 -37.514748 -6.1592512
-13.206102 -48.366047 -6.1559873
-18.525406 -67.847473 -6.1531687
-31.119709 -113.97286 -6.1917095
-10.120195 -37.559353 -6.1609693
-13.045631 -48.416607 -6.1568208
-18.300035 -67.917419 -6.153913
-30.746559 -114.11053 -6.1935539
-9.9967117 -37.602489 -6.1625123
-12.886927 -48.473991 -6.1585894
-18.074535 -67.987106 -6.1547017
-30.376347 -114.26019 -6.1961141
-9.870944 -37.637177 -6.1627383
-12.727393 -48.528603 -6.1600714
-17.85527 -68.080818 -6.1577311
-30.006529 -114.41267 -6.1988916
-9.742198 -37.660397 -6.1611576
-12.564654 -48.571159 -6.1600914
-17.627928 -68.144241 -6.1580877
-29.633509 -114.55419 -6.2011418
-9.6198368 -37.708378 -6.1636958
-12.406672 -48.632374 -6.1625443
-17.401157 -68.21003 -6.1587257
-29.257982 -114.68708 -6.2029901
-9.4957705 -37.750027 -6.1652646
-12.243658 -48.674133 -6.1626
-17.179188 -68.29512 -6.1611733
-28.889603 -114.84937 -6.2064943
-9.3732796 -37.798309 -6.1679831
-12.083474 -48.727333 -6.1641712
-16.9597 -68.390999 -6.1646585
-28.511482 -114.97426 -6.2080421
-9.2422342 -37.812088 -6.1651402
-11.922252 -48.776649 -6.1653185
-16.725929 -68.429588 -6.1630473
-28.138033 -115.11911 -6.2107348
-9.1192608 -37.858868 -6.1677475
-11.76222 -48.831188 -6.1671925
-16.502995 -68.51265 -6.1655097
-27.765192 -115.26797 -6.2137089
-8.9928246 -37.891541 -6.1681237
-11.596375 -48.861683 -6.1660991
-16.278049 -68.588066 -6.1673503
-27.38765 -115.3987 -6.2157707
-8.8667259 -37.925739 -6.1688166
-11.43698 -48.919514 -6.1685228
-16.049017 -68.646622 -6.1677432
-27.014637 -115.54999 -6.2190056
-8.7428694 -37.969807 -6.1711817
-11.273041 -48.958202 -6.168601
-15.822477 -68.716156 -6.1691895
-26.635334 -115.67581 -6.2209363
-8.6118174 -37.982601 -6.1685333
-11.114394 -49.020267 -6.1716909
-15.599426 -68.801598 -6.1721296
-26.260195 -115.82113 -6.2239814
-8.4846697 -38.012379 -6.168715
-10.948212 -49.049351 -6.1706963
-15.372985 -68.872887 -6.1738663
-25.880917 -115.94973 -6.2261944
-8.3608761 -38.057461 -6.1714473
-10.786511 -49.098595 -6.172307
-15.143909 -68.932816 -6.1746521
-25.50201 -116.08135 -6.2286358
-8.2326708 -38.082695 -6.1710286
-10.623563 -49.14249 -6.1733127
-14.916617 -69.001297 -6.1762724
-25.122293 -116.21072 -6.2310228
-8.107707 -38.123093 -6.1731353
-10.45905 -49.179298 -6.1734967
-14.685598 -69.052872 -6.1764464
-24.741251 -116.33537 -6.233223
-7.9798522 -38.150112 -6.1731429
-10.293866 -49.212963 -6.1733556
-14.459271 -69.126945 -6.1787009
-24.360209 -116.46139 -6.2355642
-7.8540783 -38.187256 -6.1748576
-10.135359 -49.279057 -6.1773486
-14.232758 -69.200989 -6.1810188
-23.978046 -116.58349 -6.237762
-7.7291784 -38.229099 -6.1773987
-9.9726925 -49.325687 -6.1789684
-14.002942 -69.259605 -6.1820264
-23.59902 -116.72253 -6.2409329
-7.5995851 -38.247879 -6.1762815
-9.8066063 -49.355576 -6.1785583
-13.771307 -69.309479 -6.182322
-23.217731 -116.85229 -6.2436738
-7.4731207 -38.282448 -6.1777825
-9.643878 -49.402554 -6.180357
-13.544676 -69.385117 -6.1849828
-22.835684 -116.98003 -6.2463727
-7.3439403 -38.303196 -6.1771226
-9.4803791 -49.446045 -6.1817865
-13.316052 -69.451462 -6.1868825
-22.452953 -117.10606 -6.2490473
-7.2173715 -38.337673 -6.1787457
-9.3169689 -49.490444 -6.1833973
-13.084671 -69.503952 -6.1876159
-22.064964 -117.20602 -6.2503986
-7.0918646 -38.378284 -6.1814237
-9.1487579 -49.509354 -6.1818929
-12.855375 -69.568062 -6.1894512
-21.682619 -117.33752 -6.253499
-6.9604158 -38.386768 -6.1789966
-8.9862766 -49.559414 -6.1843467
-12.623696 -69.61982 -6.1902556
-21.297279 -117.45473 -6.2559056
-6.8345742 -38.426201 -6.1816206
-8.8206282 -49.592445 -6.1847429
-12.394814 -69.687683 -6.1925592
-20.91325 -117.58111 -6.2588663
-6.7083516 -38.464108 -6.1840653
-8.656601 -49.634911 -6.1863847
-12.164233 -69.746849 -6.1941581
-20.527287 -117.69862 -6.2614226
-6.5782356 -38.479858 -6.1830173
-8.4911118 -49.669365 -6.1870956
-11.932456 -69.799751 -6.1952686
-20.14254 -117.82522 -6.2645297
-6.4520454 -38.518784 -6.185761
-8.3289671 -49.72403 -6.1903915
-11.700852 -69.854225 -6.1965866
-19.751932 -117.91926 -6.2659736
-6.3203659 -38.524979 -6.1833181
-8.1647034 -49.766903 -6.1922865
-11.470139 -69.914764 -6.1985102
-19.365919 -118.04248 -6.2690358
-6.1928668 -38.556561 -6.1850195
-7.9948788 -49.775822 -6.1900263
-11.238706 -69.971764 -6.2001886
-18.976929 -118.14966 -6.2713137
-6.0645108 -38.583164 -6.1859903
-7.8300095 -49.815479 -6.1916585
-11.007373 -70.030258 -6.2020669
-18.588354 -118.2614 -6.273901
-5.9364185 -38.611759 -6.1873493
-7.6638694 -49.847477 -6.1924067
-10.776647 -70.093658 -6.2044463
-18.199471 -118.37332 -6.2765665
-5.8073721 -38.634403 -6.1878233
-7.5003638 -49.897285 -6.1954355
-10.542237 -70.133797 -6.2048359
-17.80928 -118.47887 -6.2789621
-5.6779561 -38.654686 -6.1879878
-7.3327146 -49.920033 -6.1951723
-10.309533 -70.185776 -6.2063417
-17.418175 -118.58036 -6.2812099
-5.5489779 -38.67807 -6.1887183
-7.1688724 -49.969234 -6.1982608
-10.075068 -70.226311 -6.2069039
-17.027636 -118.68784 -6.2838435
-5.4199109 -38.701065 -6.1894546
-6.9993358 -49.979 -6.1965265
-9.8408928 -70.269234 -6.207747
-16.637877 -118.80334 -6.2869701
-5.2937407 -38.745495 -6.193687
-6.8334274 -50.014637 -6.1980691
-9.6096001 -70.333763 -6.210566
-16.246363 -118.909 -6.2896433
-5.1644444 -38.76783 -6.1944547
-6.6665516 -50.043667 -6.1988621
-9.3752003 -70.376625 -6.2115397
-15.852695 -119.0011 -6.2916684
-5.0340629 -38.782063 -6.1939974
-6.5002589 -50.077538 -6.2003226
-9.1425953 -70.433907 -6.2138557
-15.461089 -119.11114 -6.2947102
-4.9027877 -38.789089 -6.1924596
-6.3337235 -50.110138 -6.2016954
-8.9087296 -70.482658 -6.2154865
-15.067111 -119.20555 -6.2969947
-4.7728167 -38.806194 -6.1926007
-6.1663465 -50.136528 -6.2023678
-8.6749535 -70.53318 -6.2173419
-14.671227 -119.2869 -6.2986574
-4.6449656 -38.841091 -6.1956496
-6.0007486 -50.17812 -6.204989
-8.4402161 -70.576881 -6.2186651
-14.279741 -119.40686 -6.3024287
-4.5149617 -38.858593 -6.195991
-5.8308935 -50.184326 -6.2033043
-8.2049074 -70.616577 -6.2197032
-13.884319 -119.49715 -6.3047018
-4.3862944 -38.888081 -6.1983137
-5.6636376 -50.212772 -6.2044387
-7.9688053 -70.649971 -6.2202563
-13.488521 -119.58675 -6.3070078
-4.2564979 -38.908169 -6.1992059
-5.4966407 -50.244179 -6.206007
-7.7347069 -70.702087 -6.2225266
-13.093825 -119.68919 -6.3100595
-4.1260772 -38.922741 -6.1992888
-5.3298221 -50.278088 -6.2079535
-7.5007496 -70.757217 -6.2251301
-12.698073 -119.7854 -6.3128514
-3.9960816 -38.941505 -6.2001081
-5.1618462 -50.301788 -6.2087078
-7.2640405 -70.787506 -6.2256174
-12.299445 -119.85713 -6.3144231
-3.8640196 -38.939808 -6.1977406
-4.9935136 -50.322327 -6.2091417
-7.0286984 -70.831978 -6.2274213
-11.9027 -119.94993 -6.317174
-3.7335091 -38.953266 -6.197855
-4.8263159 -50.354977 -6.2111382
-6.7932281 -70.876595 -6.2293062
-11.506069 -120.04764 -6.3202529
-3.6049745 -38.988159 -6.2014494
-4.6576648 -50.373108 -6.2114139
-6.5559907 -70.903694 -6.2297211
-11.107506 -120.12878 -6.3225284
-3.475122 -39.009991 -6.2030339
-4.48806 -50.38073 -6.210463
-6.3193908 -70.938339 -6.2308688
-10.710167 -120.22701 -6.3257728
-3.3439007 -39.016655 -6.2022758
-4.322329 -50.432964 -6.2150807
-6.0842376 -70.990929 -6.2336607
-10.309373 -120.28984 -6.3272243
-3.2134569 -39.032391 -6.2030296
-4.1531477 -50.446388 -6.2149839
-5.8475137 -71.027077 -6.2350779
-9.9109392 -120.38365 -6.3303752
-3.0841167 -39.062527 -6.206141
-3.983664 -50.455936 -6.2144799
-5.6098266 -71.052437 -6.2356186
-9.5099134 -120.44981 -6.3321419
-2.953104 -39.072308 -6.2060862
-3.8165183 -50.496078 -6.217813
-5.3734984 -71.096367 -6.2378578
-9.1107264 -120.54337 -6.3354187
-2.8234799 -39.101299 -6.2091532
-3.6475646 -50.513737 -6.2184467
-5.1358199 -71.124016 -6.2387376
-8.7092142 -120.6106 -6.3373823
-2.6905127 -39.083641 -6.2048817
-3.4779193 -50.521877 -6.2179785
-4.8991852 -71.167847 -6.2411065
-8.3093624 -120.70567 -6.3408785
-2.5603428 -39.105965 -6.2070279
-3.3105066 -50.563759 -6.2217317
-4.660255 -71.179443 -6.2407174
-7.9072785 -120.77357 -6.3430171
-2.4299846 -39.126747 -6.2089982
-3.1404607 -50.566578 -6.2207484
-4.4240265 -71.234093 -6.244174
-7.5050926 -120.84432 -6.3453751
-2.2986586 -39.1325 -6.2086535
-2.9723396 -50.601284 -6.2237568
-4.185524 -71.254608 -6.2447066
-7.1034889 -120.93021 -6.348599
-2.167841 -39.14719 -6.2097964
-2.802932 -50.615761 -6.2243466
-3.9480903 -71.295197 -6.2470689
-6.7003512 -120.99593 -6.3508339
-2.0377133 -39.176117 -6.2132659
-2.6332643 -50.625896 -6.224472
-3.7092381 -71.312057 -6.2474217
-6.2970033 -121.06322 -6.3532214
-1.9063392 -39.182468 -6.2132249
-2.4640467 -50.645462 -6.2258272
-3.4708872 -71.339836 -6.2488003
-5.8934808 -121.13328 -6.3558259
-1.7746601 -39.182083 -6.2121854
-2.2949951 -50.670372 -6.2279081
-3.2328265 -71.376419 -6.25102
-5.4896569 -121.20416 -6.3585439
-1.6438448 -39.201283 -6.2143202
-2.1252878 -50.6824 -6.228476
-2.994261 -71.405075 -6.2526159
-5.0853152 -121.2711 -6.361125
-1.5127345 -39.215218 -6.2156901
-1.9551458 -50.684021 -6.2278342
-2.7551594 -71.423096 -6.2533488
-4.6811228 -121.3506 -6.3644361
-1.381168 -39.217888 -6.2153449
-1.7858882 -50.709808 -6.2302322
-2.5164499 -71.453903 -6.2552729
-4.2759938 -121.41567 -6.3670611
-1.2498251 -39.227165 -6.216116
-1.6160278 -50.720848 -6.2308879
-2.2774143 -71.47921 -6.2567844
-3.8699648 -121.4632 -6.3688374
-1.1186193 -39.242451 -6.2179089
-1.446346 -50.739475 -6.2325459
-2.0380878 -71.498459 -6.2578363
-3.4640813 -121.52395 -6.3713775
-0.98687804 -39.239517 -6.2168851
-1.2758979 -50.731312 -6.2309823
-1.7990326 -71.531815 -6.2601924
-3.0578797 -121.58517 -6.3740139
-0.85584319 -39.267078 -6.2207623
-1.1064012 -50.762974 -6.2343807
-1.5596882 -71.56031 -6.2621932
-2.6513064 -121.64502 -6.3766499
-0.72402173 -39.260967 -6.2193747
-0.93618017 -50.765522 -6.2342725
-1.320033 -71.580406 -6.2635298
-2.2443652 -121.70347 -6.3792834
-0.59274548 -39.287197 -6.2231798
-0.76622516 -50.785439 -6.2363682
-1.0800804 -71.587784 -6.2638226
-1.8371156 -121.76411 -6.3821039
-0.46090373 -39.279091 -6.2216158
-0.59593588 -50.786785 -6.2362533
-0.84044307 -71.624161 -6.2667241
-1.4294069 -121.81677 -6.3845768
-0.32927364 -39.288513 -6.2228985
-0.42588809 -50.816433 -6.2396832
-0.60038495 -71.637177 -6.2676516
-1.0213324 -121.86409 -6.3868413
-0.19757818 -39.296036 -6.2239499
-0.25549021 -50.814075 -6.2392535
-0.36028305 -71.656166 -6.2691722
-0.61297369 -121.91344 -6.3892841
-0.065826878 -39.297668 -6.2241387
-0.085114166 -50.811893 -6.2389154
-0.12004577 -71.665543 -6.2699223
-0.20428549 -121.95541 -6.3914113
0.065936767 -39.301014 -6.2246685
0.085298993 -50.841694 -6.2425742
0.12028415 -71.694275 -6.2724361
0.20468649 -122.00153 -6.3938289
0.19772847 -39.305183 -6.2253985
0.25574315 -50.837551 -6.242136
0.36068931 -71.699127 -6.2729311
0.61406773 -122.06661 -6.3973117
0.32951707 -39.305115 -6.2255282
0.42633662 -50.853844 -6.244277
0.60132664 -71.726822 -6.2754951
1.0237546 -122.11445 -6.3999624
0.46129116 -39.303223 -6.2254381
0.596955 -50.862133 -6.2455058
0.84194046 -71.735542 -6.2764697
1.4336835 -122.15361 -6.4022307
0.59324276 -39.313244 -6.2273054
0.76753694 -50.863438 -6.2459464
1.0828515 -71.758827 -6.2787895
1.8440951 -122.20522 -6.4052234
0.72522056 -39.32032 -6.2287765
0.93811333 -50.863029 -6.2462473
1.3236842 -71.768074 -6.2799516
2.2545481 -122.23805 -6.4073048
0.85705787 -39.318024 -6.2288332
1.1090412 -50.877907 -6.2484961
1.5645083 -71.77272 -6.2807817
2.6655033 -122.2815 -6.4100146
0.98902887 -39.320889 -6.2297773
1.279673 -50.876045 -6.2487593
1.8056781 -71.788467 -6.2826543
3.0765126 -122.31312 -6.4121766
1.1215239 -39.340679 -6.2334738
1.4504317 -50.878067 -6.2495699
2.0463176 -71.780487 -6.2825208
3.4882665 -122.36099 -6.4152637
1.253117 -39.327206 -6.2319694
1.6210545 -50.874378 -6.2497487
2.2882681 -71.813881 -6.2860799
3.9001651 -122.40086 -6.4180031
1.3855569 -39.339546 -6.2346258
1.7925755 -50.895851 -6.2530899
2.5292249 -71.811234 -6.2865553
4.312386 -122.43979 -6.4207664
1.5177338 -39.342106 -6.2358031
1.9636735 -50.901581 -6.2545681
2.7705481 -71.817078 -6.2878442
4.7250094 -122.47986 -6.4236627
1.6496694 -39.337688 -6.2359447
2.1340377 -50.88784 -6.2537236
3.0120816 -71.8255 -6.2894311
5.1376987 -122.51254 -6.4262438
1.7812613 -39.32552 -6.2349277
2.30582 -50.906384 -6.2569175
3.2543592 -71.84761 -6.2922869
5.5499873 -122.52898 -6.4280467
1.9128921 -39.315006 -6.2342424
2.4767303 -50.903378 -6.2575336
3.4962616 -71.857452 -6.2941399
5.9626303 -122.54787 -6.4300499
2.0456729 -39.327129 -6.2372174
2.6473281 -50.893677 -6.2573967
3.7372158 -71.846275 -6.2942233
6.3764596 -122.58453 -6.4330592
2.1774075 -39.318058 -6.2369013
2.8183172 -50.891144 -6.2582121
3.9794183 -71.857475 -6.2963376
6.7901559 -122.61175 -6.4356461
2.3105791 -39.333652 -6.2405686
2.9889228 -50.88129 -6.2581973
4.2219043 -71.870689 -6.2987003
7.2046065 -122.64608 -6.4386797
2.442313 -39.323566 -6.2402325
3.1605949 -50.888592 -6.2603636
4.4628353 -71.855904 -6.2986808
7.6193495 -122.67879 -6.4417014
2.5740097 -39.31311 -6.2399077
3.3321965 -50.892971 -6.2622418
4.704875 -71.858032 -6.3002148
8.0321474 -122.6758 -6.4429226
2.7068319 -39.31918 -6.2422767
3.5019526 -50.869026 -6.260705
4.9467916 -71.856621 -6.3015094
8.447854 -122.71272 -6.4463129
2.8391747 -39.3172 -6.2434382
3.6738529 -50.875912 -6.2630334
5.1898961 -71.870247 -6.3041954
8.8627462 -122.73228 -6.4488649
2.97119 -39.310211 -6.2438755
3.8450291 -50.871506 -6.2640424
5.4306202 -71.849602 -6.3039465
9.2783413 -122.75673 -6.4517484
3.1040473 -39.313637 -6.246037
4.0170822 -50.87748 -6.2664013
5.6741667 -71.864922 -6.3069239
9.6931868 -122.76694 -6.4539566
3.2335203 -39.274818 -6.2415576
4.1885839 -50.875164 -6.2678108
5.9146733 -71.8405 -6.3064857
10.107992 -122.77318 -6.4560299
3.3673105 -39.288578 -6.2455029
4.3589396 -50.858551 -6.2675295
6.1587205 -71.85775 -6.3097773
10.523929 -122.78944 -6.4587049
3.4997454 -39.285221 -6.2467999
4.5307369 -50.858273 -6.2693315
6.3999295 -71.840271 -6.310091
10.940448 -122.80835 -6.4615917
3.6322808 -39.282341 -6.2482433
4.7023001 -50.854374 -6.2707596
6.6427898 -71.840355 -6.3120193
11.357044 -122.82401 -6.4643831
3.7641361 -39.271713 -6.2485251
4.8745322 -50.856617 -6.273016
6.8856106 -71.838455 -6.3138452
11.773421 -122.8336 -6.4669294
3.8958893 -39.259914 -6.2486911
5.0437784 -50.827503 -6.2714753
7.1283607 -71.834396 -6.3155532
12.189543 -122.83727 -6.4692378
4.0295005 -39.26614 -6.2517972
5.2159142 -50.827351 -6.2735791
7.3711214 -71.829124 -6.3172274
12.607236 -122.85332 -6.4722729
4.1598058 -39.239922 -6.2498083
5.3894877 -50.839653 -6.2772927
7.6128178 -71.812576 -6.3179812
13.022121 -122.83916 -6.4737902
4.2909894 -39.222492 -6.2492886
5.5569587 -50.794289 -6.2739563
7.8563352 -71.812119 -6.3202229
13.4394 -122.84503 -6.4764385
4.4247041 -39.227684 -6.2524443
5.7280264 -50.782425 -6.2748284
8.0981178 -71.794716 -6.3210454
13.859116 -122.86945 -6.4801393
4.5579362 -39.227551 -6.2548232
5.9002905 -50.780422 -6.2769899
8.3400555 -71.778091 -6.3220081
14.27518 -122.85831 -6.482039
4.6878152 -39.198517 -6.2526655
6.0712571 -50.766563 -6.2777576
8.5839205 -71.776924 -6.3244047
14.693313 -122.86237 -6.4848161
4.8200407 -39.189301 -6.2537374
6.2442603 -50.768906 -6.280601
8.8269272 -71.767258 -6.3261251
15.111631 -122.86499 -6.4875927
4.9525619 -39.182049 -6.2551951
6.4142904 -50.746475 -6.2804513
9.0686655 -71.746483 -6.3269386
15.52911 -122.8581 -6.4899416
5.0843577 -39.16872 -6.2557535
6.5848441 -50.728119 -6.2808766
9.3119545 -71.737152 -6.3288331
15.947977 -122.85954 -6.4928055
5.2168388 -39.160343 -6.257174
6.7556581 -50.711529 -6.2815919
9.5520306 -71.702576 -6.3285728
16.364098 -122.83755 -6.4945064
5.3487949 -39.147667 -6.2579794
6.9286613 -50.710663 -6.2843266
9.7965765 -71.700851 -6.3312836
16.781498 -122.82327 -6.4966898
5.4814391 -39.139652 -6.2596002
7.1006436 -50.701412 -6.2860951
10.039845 -71.688477 -6.333128
17.199863 -122.81384 -6.4992051
5.6122851 -39.118607 -6.2592087
7.2715755 -50.684151 -6.2869425
10.278726 -71.644508 -6.332253
17.620123 -122.81532 -6.5023727
5.7444749 -39.106812 -6.2603683
7.4420857 -50.663685 -6.2874637
10.523225 -71.639236 -6.3348694
18.039791 -122.80996 -6.5052547
5.8767328 -39.095131 -6.2616177
7.6117053 -50.637085 -6.2872944
10.765496 -71.617767 -6.3361278
18.457697 -122.79036 -6.5074577
6.0087161 -39.081306 -6.2625947
7.7847586 -50.63287 -6.2899766
11.00812 -71.597939 -6.3376031
18.878067 -122.7849 -6.5104861
6.138166 -39.051086 -6.2610149
7.9522991 -50.592628 -6.2882543
11.249928 -71.572182 -6.3386264
19.296366 -122.76372 -6.5127573
6.2700057 -39.036163 -6.2619572
8.1250935 -50.585674 -6.2907405
11.495501 -71.569351 -6.341753
19.715157 -122.74375 -6.5151682
6.4025674 -39.025383 -6.2636361
8.2949972 -50.560253 -6.2910028
11.736645 -71.538033 -6.3424292
20.135511 -122.73138 -6.5180588
6.5338912 -39.006767 -6.2641296
8.4709311 -50.570736 -6.295805
11.979482 -71.516472 -6.3440433
20.553289 -122.70138 -6.5200882
6.6637607 -38.979519 -6.2633066
8.6374598 -50.524628 -6.2936349
12.223154 -71.499062 -6.3460984
20.97296 -122.68085 -6.5226974
6.7955389 -38.963406 -6.2643433
8.8102446 -50.515072 -6.2960887
12.466459 -71.478615 -6.3479581
21.393383 -122.66269 -6.5255084
6.9274511 -38.947788 -6.2655311
8.9813919 -50.495533 -6.2973719
12.70808 -71.447868 -6.3489752
21.812511 -122.63516 -6.5278983
7.0620689 -38.9468 -6.2691464
9.1496286 -50.459538 -6.2966728
12.949389 -71.414948 -6.3498726
22.231556 -122.60542 -6.5302463
7.1900649 -38.909126 -6.2669272
9.3210897 -50.441193 -6.2982483
13.194832 -71.403999 -6.352797
22.649973 -122.57061 -6.5324001
7.322432 -38.895172 -6.268599
9.4913921 -50.416222 -6.299068
13.434789 -71.362686 -6.3530936
23.071835 -122.5526 -6.5355258
7.4544444 -38.878986 -6.2699828
9.6597967 -50.3811 -6.2986913
13.675117 -71.323181 -6.3536229
23.491844 -122.52275 -6.5380979
7.5849133 -38.85458 -6.2701125
9.8348799 -50.380287 -6.3026767
13.917651 -71.294746 -6.3552103
23.910097 -122.48218 -6.540174
7.7161942 -38.834221 -6.270967
10.003469 -50.345661 -6.3025055
14.161312 -71.271339 -6.3573208
24.333235 -122.46481 -6.5435658
7.8471341 -38.811985 -6.2715898
10.171393 -50.307789 -6.3019981
14.404602 -71.245277 -6.3592682
24.752417 -122.42564 -6.5458713
7.9778519 -38.788532 -6.2720871
10.343046 -50.288174 -6.3038497
14.645832 -71.208435 -6.3603272
25.172983 -122.39173 -6.5485334
8.1079426 -38.761974 -6.2721529
10.516277 -50.2756 -6.3066578
14.884351 -71.158226 -6.3602643
25.594255 -122.3595 -6.5513639
8.2410164 -38.74942 -6.2745576
10.682167 -50.227757 -6.3051138
15.130827 -71.145447 -6.3636203
26.009455 -122.29697 -6.5526481
8.3684759 -38.710407 -6.2727485
10.853163 -50.203926 -6.3066545
15.371622 -71.105156 -6.3645906
26.433191 -122.27311 -6.5560813
8.4994335 -38.687664 -6.2736454
11.024326 -50.180454 -6.3083138
15.613553 -71.069672 -6.3660645
26.85191 -122.22434 -6.5582571
8.6347141 -38.684109 -6.2777286
11.194906 -50.15395 -6.3096652
15.8559 -71.035515 -6.3677316
27.271402 -122.17776 -6.5606265
8.765564 -38.660229 -6.2785869
11.364475 -50.122635 -6.3104839
16.097424 -70.997147 -6.3690944
27.693745 -122.14233 -6.5636735
8.8928347 -38.620628 -6.2769628
11.533987 -50.09087 -6.3113179
16.335682 -70.944115 -6.3692145
28.11014 -122.07932 -6.5653152
9.0260544 -38.606773 -6.2795944
11.705786 -50.068676 -6.3134313
16.581095 -70.921638 -6.3721519
28.533852 -122.04668 -6.5686674
9.1568909 -38.582382 -6.2805858
11.872327 -50.023823 -6.3127594
16.819519 -70.868721 -6.3724284
28.949482 -121.97809 -6.5701632
9.2873774 -38.556362 -6.281383
12.042204 -49.992966 -6.3139248
17.060112 -70.824707 -6.3735785
29.371424 -121.93487 -6.573103
9.4156513 -38.521133 -6.2807517
12.212416 -49.963203 -6.3153014
17.308002 -70.810173 -6.3774562
29.794573 -121.89499 -6.5763011
9.5467882 -38.497559 -6.2820916
12.385471 -49.944588 -6.318162
17.545231 -70.751389 -6.3774247
30.216257 -121.84748 -6.5791664
9.6772852 -38.471199 -6.2830496
12.551377 -49.8969 -6.3174176
17.78849 -70.716583 -6.3796272
30.631376 -121.77235 -6.5806184
9.8072386 -38.442539 -6.2837038
12.72388 -49.875225 -6.3200393
18.029013 -70.670357 -6.3808746
31.050264 -121.71122 -6.5829039
9.9369888 -38.412975 -6.2842822
12.8866 -49.815155 -6.3178668
18.270638 -70.627991 -6.3825445
31.474489 -121.66954 -6.5863199
10.066077 -38.380791 -6.2845025
13.059279 -49.793522 -6.3206406
18.511358 -70.581673 -6.3839316
31.892019 -121.60059 -6.5883389
10.197189 -38.356171 -6.2860346
13.222813 -49.736889 -6.3190441
18.749104 -70.523727 -6.3843408
32.311726 -121.5388 -6.5908237
10.327299 -38.327579 -6.2869878
13.393788 -49.708206 -6.3210692
18.989704 -70.476257 -6.3857708
32.73135 -121.47546 -6.5933027
10.454171 -38.286972 -6.2860408
13.563774 -49.675465 -6.3226538
19.231102 -70.431274 -6.3875017
33.149223 -121.40449 -6.5954466
10.587207 -38.268784 -6.2888474
13.735765 -49.649643 -6.3251929
19.470692 -70.37925 -6.3886681
33.573578 -121.35591 -6.5988855
10.712791 -38.223568 -6.2872844
13.903349 -49.607578 -6.325737
19.71414 -70.340652 -6.3911285
33.991623 -121.28316 -6.6010895
10.839897 -38.183945 -6.2867098
14.070067 -49.56234 -6.3259487
19.949781 -70.273857 -6.3911009
34.409962 -121.21039 -6.6033711
10.974195 -38.169418 -6.2903409
14.23714 -49.518291 -6.3263836
20.190737 -70.22554 -6.392827
34.824352 -121.12282 -6.6049242
11.102103 -38.132393 -6.290338
14.403923 -49.473156 -6.3267517
20.431252 -70.175224 -6.3944468
35.246471 -121.06107 -6.607964
11.234851 -38.111782 -6.2931161
14.575035 -49.442631 -6.3290615
20.670462 -70.120033 -6.3956971
35.670647 -121.00488 -6.6113882
11.359903 -38.064968 -6.2916398
14.741498 -49.396076 -6.3293934
20.910017 -70.065651 -6.3970957
36.086365 -120.91884 -6.6132603
11.488009 -38.028469 -6.2919388
14.906693 -49.345253 -6.3292499
21.14645 -70.000565 -6.3975902
36.50444 -120.83973 -6.6155906
11.618752 -38.000549 -6.2937293
15.075318 -49.305668 -6.3306203
21.389208 -69.956017 -6.4000373
36.918304 -120.74583 -6.6171889
11.746792 -37.963631 -6.2941017
15.243779 -49.265297 -6.3319635
21.628813 -69.900635 -6.4015694
37.338608 -120.67201 -6.6199675
0.69231814 -2.2111733 -0.36697969
15.410914 -49.220436 -6.3328032
21.864647 -69.832817 -6.4020357
37.757065 -120.59111 -6.6224365
0.69242609 -2.1857898 -0.36315018
15.585295 -49.198292 -6.3366413
22.108923 -69.791504 -6.4050083
38.17778 -120.51627 -6.625319
0.69619685 -2.1723666 -0.3613058
15.7451 -49.129971 -6.3346057
22.344591 -69.722588 -6.4055228
38.594761 -120.42854 -6.6275725
0.69733053 -2.1510618 -0.35814926
15.912303 -49.084827 -6.3356285
22.581314 -69.656784 -6.4063973
39.01503 -120.35002 -6.6304131
0.7080794 -2.1595101 -0.35994917
16.082367 -49.048225 -6.3378282
22.824692 -69.611061 -6.409194
39.432903 -120.263 -6.6328654
0.70604515 -2.1291671 -0.35528412
16.247168 -48.995354 -6.3379998
23.062349 -69.547386 -6.4104152
39.850693 -120.17473 -6.6353288
0.707919 -2.1110992 -0.35266331
16.414495 -48.949993 -6.3392153
23.29846 -69.478798 -6.4112573
40.263306 -120.07 -6.6369629
0.71263427 -2.1017568 -0.3514998
16.577297 -48.891064 -6.3387461
23.534069 -69.408524 -6.4120173
40.685951 -119.99419 -6.640276
0.71566617 -2.0876558 -0.34954086
16.748346 -48.85627 -6.3414803
23.775263 -69.354355 -6.4143414
41.101944 -119.89767 -6.6425233
0.72411698 -2.0894439 -0.35024479
0.77665651 -2.2410469 -0.29122132
24.009279 -69.278915 -6.414773
41.515984 -119.79461 -6.6444874
0.72719252 -2.0757976 -0.34836406
0.77086794 -2.2004707 -0.28628275
24.246132 -69.211464 -6.4160194
41.932034 -119.69653 -6.6468077
0.73145986 -2.0657556 -0.3470884
0.77581078 -2.1910093 -0.28538862
24.485193 -69.149963 -6.417892
42.349903 -119.60267 -6.6494431
0.74219638 -2.0739508 -0.34888148
0.77030933 -2.1525078 -0.28070846
24.720797 -69.078369 -6.4189034
42.764881 -119.4997 -6.6516533
0.73819172 -2.0411615 -0.3437801
0.78028351 -2.1575489 -0.28170547
24.960115 -69.0168 -6.4209232
43.181412 -119.4002 -6.6541362
0.7494821 -2.0508544 -0.3458339
0.77619255 -2.1239438 -0.27765596
25.193705 -68.939095 -6.4215164
43.594601 -119.29062 -6.656137
0.75051236 -2.03251 -0.34316289
0.7799536 -2.1122415 -0.27646646
25.429298 -68.866692 -6.4226775
44.014336 -119.198 -6.6591659
0.75472075 -2.0230076 -0.34198382
0.78881842 -2.1144054 -0.2770943
25.666183 -68.797478 -6.424212
44.431126 -119.09637 -6.6617737
0.76495743 -2.0296412 -0.34353688
0.78614604 -2.0858603 -0.27369735
25.904333 -68.731277 -6.4261045
44.845558 -118.98752 -6.6640577
0.76697522 -2.0145023 -0.34140784
0.79196793 -2.080147 -0.27329454
26.134111 -68.642677 -6.4259768
45.253193 -118.85999 -6.6653757
0.77303737 -2.0101311 -0.34110433
0.80653048 -2.0972233 -0.27589178
0.85146719 -2.2140725 -0.20753624
6.5137324 -16.937675 -0.95104247
6.5143518 -16.939285 -0.31678668
6.5200224 -16.954031 0.31706244
6.5225253 -16.960539 0.9523263
0.78022122 -2.008683 -0.34130058
0.80587459 -2.0747275 -0.27328637
0.85275036 -2.1954095 -0.20605372
6.5178313 -16.780186 -0.94342124
6.5208864 -16.78805 -0.31436548
6.5275421 -16.805185 0.31468636
6.5250845 -16.798859 0.94447106
0.78578842 -2.0030906 -0.34079611
0.80549419 -2.0533235 -0.27082121
0.85017389 -2.1672187 -0.20367421
6.5214171 -16.624054 -0.93586725
6.530066 -16.646101 -0.31211567
6.5287881 -16.642843 0.31205457
6.5344701 -16.65733 0.93774045
0.7889908 -1.9915868 -0.33928707
0.81205118 -2.0497963 -0.27071357
0.85081649 -2.1476483 -0.20210196
6.5300517 -16.48329 -0.92917013
6.5321069 -16.488478 -0.30956912
6.541616 -16.512482 0.31001976
6.5420671 -16.51362 0.93087977
0.79212415 -1.9800822 -0.3377777
0.82350117 -2.0585158 -0.27222827
0.85465246 -2.136385 -0.20131056
6.5362377 -16.338713 -0.92225033
6.5439606 -16.358017 -0.30752993
6.5455403 -16.361965 0.30760416
6.5489311 -16.370441 0.92404133
0.80339295 -1.9888881 -0.33973747
0.81844139 -2.0261424 -0.26830843
0.85351205 -2.1129634 -0.1993721
6.5444536 -16.201519 -0.91573983
6.5498137 -16.214788 -0.30524838
6.5489321 -16.212606 0.30520728
6.5538526 -16.224787 0.91705501
0.80587637 -1.9759334 -0.33798423
0.83256316 -2.0413668 -0.27069265
0.86168259 -2.1127651 -0.19962485
6.5512748 -16.063112 -0.90915316
6.5615139 -16.088217 -0.30327809
6.5618234 -16.088976 0.30329239
6.566998 -16.101664 0.91133523
0.81678581 -1.9836366 -0.33976838
0.83975178 -2.0394115 -0.27080518
0.86769766 -2.1072805 -0.1993804
6.5815916 -15.983977 -0.90591812
6.5760598 -15.970544 -0.30147377
6.5774741 -15.973978 0.30153859
6.5773139 -15.973589 0.90532935
0.81954783 -1.9715431 -0.3381657
0.83492804 -2.0085425 -0.26707643
0.87350112 -2.1013355 -0.19909391
6.6381097 -15.968951 -0.90632284
