# .PCD v0.7 - Point Cloud Data file format
VERSION 0.7
FIELDS x y z
SIZE 4 4 4
TYPE F F F
COUNT 1 1 1
WIDTH 1554
HEIGHT 1
VIEWPOINT 0 0 0 1 0 0 0
POINTS 1554
DATA ascii
13.83212 -2.2931201 -2.2206907
18.08371 -2.9979584 -2.2507026
26.033815 -4.3159451 -2.3087475
46.142448 -7.6496 -2.4512253
13.819417 -2.2434332 -2.2174313
18.096479 -2.937768 -2.2510533
26.017923 -4.2237291 -2.3060694
46.177097 -7.4963531 -2.4517171
13.823828 -2.1966045 -2.2169449
18.103584 -2.8766575 -2.2507248
26.020157 -4.1346002 -2.3050256
46.174507 -7.3371239 -2.4502597
13.837148 -2.1511815 -2.217912
18.097708 -2.8135462 -2.2488086
26.048174 -4.0495591 -2.3062918
46.196415 -7.18189 -2.4501305
13.863497 -2.1076972 -2.2209902
18.102377 -2.7521431 -2.2482297
26.05348 -3.9609668 -2.3055727
46.202499 -7.0242653 -2.4491904
13.871703 -2.0613847 -2.221185
18.124634 -2.6933854 -2.2498596
26.074265 -3.8747289 -2.3062496
46.202351 -6.8658347 -2.4479485
13.868855 -2.0134583 -2.2196355
18.129536 -2.6320171 -2.2493601
26.079681 -3.7862067 -2.3055928
46.223717 -6.7106857 -2.4478748
13.862143 -1.96505 -2.2174945
18.144646 -2.5721228 -2.2501521
26.076054 -3.6964521 -2.3041635
46.24614 -6.5556941 -2.4478843
13.875188 -1.9194657 -2.2185392
18.130276 -2.508106 -2.2473147
26.094759 -3.6098967 -2.304734
46.251575 -6.3983502 -2.4470229
13.874662 -1.8720053 -2.2174392
18.144918 -2.4481595 -2.2480998
26.092302 -3.5204411 -2.3034616
46.253784 -6.2406802 -2.4460189
13.884264 -1.8259232 -2.2179828
18.152931 -2.3872967 -2.2480879
26.118526 -3.4348545 -2.3047471
46.274132 -6.0855236 -2.4460022
13.879726 -1.7780062 -2.2162931
18.161364 -2.326488 -2.2481537
26.135302 -3.3479569 -2.3052237
46.266045 -5.9267244 -2.4445105
13.904173 -1.7337748 -2.2192559
18.167309 -2.2653649 -2.247937
26.122324 -3.2573118 -2.3031027
46.276505 -5.7704287 -2.4440272
13.903358 -1.6863526 -2.2182112
18.150454 -2.2014873 -2.2449253
26.137932 -3.1702964 -2.3035288
46.291977 -5.6148014 -2.4438365
13.896276 -1.6382356 -2.2161925
18.16559 -2.1415462 -2.2458968
26.131218 -3.0806158 -2.3020139
46.301521 -5.458498 -2.4433606
13.894876 -1.5908545 -2.215106
18.183096 -2.0818222 -2.2471855
26.141577 -2.9930058 -2.3020294
46.302456 -5.3012686 -2.4424579
13.908158 -1.5451504 -2.2163851
18.186735 -2.0204861 -2.2467854
26.152622 -2.9054699 -2.3021314
46.310036 -5.1448917 -2.4419343
13.901037 -1.4971937 -2.214438
18.181702 -1.9582373 -2.2453399
26.166859 -2.8182685 -2.3025398
46.304123 -4.9871273 -2.440727
13.928011 -1.452876 -2.2179463
18.201895 -1.8986987 -2.2470348
26.155519 -2.7283671 -2.3007243
46.321945 -4.8319926 -2.4407988
13.948958 -1.4078002 -2.2205179
18.177294 -1.8345454 -2.2432256
26.16468 -2.6406734 -2.3007383
46.307384 -4.6735783 -2.4391921
13.923864 -1.3581237 -2.215786
18.211533 -1.7763399 -2.2467036
26.170034 -2.5526063 -2.3004434
46.321903 -4.5182052 -2.4391451
13.928639 -1.3114603 -2.2158337
18.197693 -1.7134157 -2.2442746
26.187376 -2.4656897 -2.3012283
46.333111 -4.3625245 -2.4389515
13.935101 -1.2649473 -2.2161744
18.197556 -1.6518681 -2.2435622
26.184229 -2.3768518 -2.3002386
46.330479 -4.2056108 -2.4380569
13.921904 -1.2167013 -2.2134144
18.217279 -1.5920944 -2.2453232
26.174868 -2.2875459 -2.2987297
46.318771 -4.048017 -2.436713
13.938045 -1.1710368 -2.215344
18.212685 -1.5301805 -2.244112
26.174509 -2.1991115 -2.2980375
46.327991 -3.8923526 -2.4364977
13.946394 -1.1246616 -2.2160592
18.24209 -1.4710741 -2.2471149
26.201488 -2.1129339 -2.2997713
46.333927 -3.7364488 -2.4361374
13.955635 -1.0783244 -2.2169406
18.228235 -1.4084598 -2.2448137
26.211428 -2.0253053 -2.3000348
46.330444 -3.5798619 -2.4353094
13.945535 -1.03052 -2.2147748
18.226671 -1.3468791 -2.2440526
26.198404 -1.9359586 -2.2983093
46.343765 -3.4246213 -2.4353926
13.944666 -0.98345804 -2.2141006
18.237137 -1.2861878 -2.2447975
26.200832 -1.8478333 -2.297966
46.340828 -3.2682216 -2.4346488
13.95077 -0.93689245 -2.2145588
18.215355 -1.2232894 -2.2415988
26.210873 -1.7602446 -2.2983162
46.331554 -3.11149 -2.4335997
13.958736 -0.89042568 -2.215337
18.253807 -1.1644075 -2.2458377
26.220041 -1.6725724 -2.2986155
46.310947 -2.9541683 -2.4319835
13.967201 -0.84395546 -2.2162187
18.23535 -1.1018544 -2.2430997
26.198511 -1.5830213 -2.2962499
46.332535 -2.7996013 -2.4326103
13.955148 -0.79627657 -2.21387
18.243782 -1.0409847 -2.243695
26.212893 -1.4956999 -2.2970579
46.335018 -2.6438625 -2.4322617
13.970225 -0.7501536 -2.2158506
18.237505 -0.97929198 -2.2425065
26.221617 -1.4080117 -2.2973957
46.318146 -2.4871271 -2.4309247
13.957838 -0.70256364 -2.2134998
18.245584 -0.91838622 -2.243109
26.214083 -1.3194782 -2.296335
46.313683 -2.3311858 -2.4302666
13.982471 -0.65681189 -2.2170444
18.240831 -0.85684389 -2.2421587
26.198391 -1.2306418 -2.2945862
46.308609 -2.1752982 -2.4296038
13.967113 -0.60916519 -2.214273
18.229836 -0.79508054 -2.2404668
26.205795 -1.1429461 -2.2948861
46.300026 -2.019341 -2.4287846
13.973634 -0.56251609 -2.2149954
18.23963 -0.73424602 -2.2413554
26.2013 -1.0547473 -2.2941699
46.286175 -1.8632747 -2.4277167
13.979713 -0.51581961 -2.2156725
18.239637 -0.67300111 -2.2410665
26.191174 -0.96639466 -2.2929866
46.288017 -1.7079225 -2.4274993
13.968585 -0.46851674 -2.2136474
18.231764 -0.61150694 -2.2398345
26.188841 -0.87839317 -2.2925117
46.278881 -1.5522281 -2.4267337
13.974783 -0.42182213 -2.2143929
18.241076 -0.55059808 -2.2407391
26.211535 -0.79118258 -2.2942531
46.255642 -1.3962044 -2.4252558
13.962726 -0.37460563 -2.212271
18.242052 -0.48941556 -2.2406449
26.199499 -0.70290565 -2.2929804
46.25721 -1.2410336 -2.4251063
13.973903 -0.32802385 -2.213855
18.232433 -0.42798874 -2.2392745
26.20809 -0.61520958 -2.293539
46.246124 -1.0855831 -2.4243207
13.967056 -0.28101185 -2.2126088
18.253582 -0.36725509 -2.2417083
26.207785 -0.52729064 -2.2933447
46.234325 -0.93021703 -2.4235251
13.96296 -0.23409821 -2.211823
18.24053 -0.30581447 -2.2399669
26.179831 -0.43892208 -2.2907567
46.229607 -0.77506977 -2.4231279
13.964288 -0.18729006 -2.2119215
18.231272 -0.24451917 -2.2387166
26.208832 -0.35151479 -2.2931786
46.200584 -0.61964566 -2.4214842
13.958299 -0.14040361 -2.2108858
18.233862 -0.18341063 -2.2389467
26.181562 -0.2633549 -2.2907023
46.188976 -0.4646053 -2.4207807
13.950514 -0.093548454 -2.2095907
18.228615 -0.12223627 -2.2382393
26.17487 -0.17552175 -2.2900524
46.175919 -0.30964348 -2.420028
13.959606 -0.046804186 -2.2109935
18.240244 -0.061156441 -2.2396297
26.172565 -0.087752163 -2.2898121
46.153545 -0.154745 -2.4188149
13.951852 0 -2.2097528
18.231306 0 -2.2385197
26.173876 0 -2.2899139
46.156937 0 -2.4189789
13.957376 0.046796706 -2.2106402
18.226624 0.061110772 -2.2379572
26.153049 0.087686732 -2.2881048
46.141323 0.154704 -2.4181743
13.972204 0.093693905 -2.2130263
18.224319 0.12220746 -2.2377119
26.169184 0.17548363 -2.2895551
46.133472 0.30935887 -2.4178035
13.962858 0.14044948 -2.2116079
18.227713 0.18334876 -2.2381916
26.156666 0.26310444 -2.2885242
46.1133 0.46384406 -2.4168143
13.951861 0.1871234 -2.2099531
18.200905 0.2441119 -2.2349877
26.154772 0.35078973 -2.2884483
46.112007 0.61845762 -2.4168415
13.946718 0.23382591 -2.2092502
18.210871 0.30531725 -2.2363248
26.153118 0.43847424 -2.2884195
46.083172 0.77261466 -2.4154525
13.948433 0.28063717 -2.2096586
18.220409 0.3665877 -2.2376344
26.138462 0.52589589 -2.2872784
46.056583 0.92664093 -2.4142082
13.94103 0.32725218 -2.2086473
18.216497 0.42761466 -2.2373173
26.134226 0.61347568 -2.2870748
46.053814 1.0810688 -2.4142394
13.942544 0.37406415 -2.2090733
18.21636 0.48872629 -2.2374895
26.118914 0.70074368 -2.2859278
46.031979 1.2349908 -2.4132984
13.938353 0.42072248 -2.2086203
18.198322 0.54930764 -2.2354875
26.122433 0.78849304 -2.2864542
46.015812 1.3889651 -2.4126813
13.939548 0.4675428 -2.2090456
18.208097 0.61071318 -2.2369273
26.110855 0.87577754 -2.2856851
45.995155 1.5427117 -2.4118559
13.94405 0.51450372 -2.2100201
18.191994 0.67124319 -2.2352128
26.10721 0.96329665 -2.2856359
45.977753 1.6964744 -2.4112282
13.928758 0.56070954 -2.2078819
18.195051 0.7324515 -2.2358773
26.107901 1.0509875 -2.2859919
45.962662 1.8502516 -2.4107485
13.918026 0.60702425 -2.206491
18.183403 0.79305547 -2.2347603
26.089687 1.1378822 -2.2847185
45.924801 2.0029757 -2.4091012
13.935571 0.65460879 -2.2096078
18.172266 0.85362315 -2.2337308
26.081331 1.2251432 -2.2843335
45.906239 2.1563973 -2.4084933
13.927737 0.70104855 -2.2087262
18.180647 0.91511756 -2.2351255
26.072399 1.3123466 -2.2839236
45.904049 2.3105669 -2.4087713
13.927328 0.74785018 -2.2090466
18.156542 0.97494453 -2.2325513
26.061949 1.399438 -2.2834065
45.858128 2.4624255 -2.4067812
13.907176 0.79353929 -2.2062597
18.163254 1.0363898 -2.2337914
26.055294 1.4867073 -2.2832475
45.83707 2.6154497 -2.4061229
13.883539 0.83890021 -2.2029438
18.167896 1.0977787 -2.2348025
26.030333 1.5728592 -2.2815092
45.828518 2.7691464 -2.4061477
13.901546 0.8867774 -2.2062602
18.146931 1.1575899 -2.2326884
26.038624 1.6609998 -2.2827113
45.792747 2.9211123 -2.4047706
13.899728 0.93346459 -2.2064562
18.154879 1.2192278 -2.2341564
26.024183 1.7477071 -2.2819462
45.74902 3.0723686 -2.4030015
13.896974 0.98009443 -2.2065282
18.135298 1.2790055 -2.2322621
26.01899 1.8350087 -2.2820175
45.749203 3.2264967 -2.4035659
13.883399 1.0259284 -2.2049065
18.130339 1.3397604 -2.232192
26.002848 1.9215078 -2.2811539
45.713688 3.3780611 -2.4022815
13.881705 1.0726119 -2.2051964
18.125246 1.400502 -2.2321308
25.996632 2.0087085 -2.2811866
45.677811 3.5294342 -2.4010046
13.875379 1.1189348 -2.2047749
18.104618 1.4599881 -2.2301807
25.967602 2.0940728 -2.2792425
45.653755 3.6815987 -2.4003754
13.881777 1.1663094 -2.2064006
18.112917 1.5217984 -2.2318189
25.965347 2.1815383 -2.2796738
45.630344 3.8337381 -2.399807
13.880968 1.2131237 -2.2069061
18.108936 1.5826259 -2.2319696
25.949751 2.2678719 -2.2789593
45.598347 3.9850559 -2.3988132
13.868747 1.258924 -2.2056217
18.095518 1.6426058 -2.2309823
25.940222 2.3547022 -2.2788029
45.563168 4.1359587 -2.3976786
13.853891 1.3044223 -2.2039423
18.092842 1.7035435 -2.231344
25.923746 2.4408674 -2.2780616
45.544914 4.2883115 -2.3974612
13.867148 1.3525916 -2.2067604
18.084074 1.7639077 -2.2309794
25.907589 2.5270076 -2.2773738
45.510277 4.4390397 -2.3964081
13.843753 1.3971823 -2.2037704
18.05603 1.8223069 -2.2282608
25.897406 2.6136985 -2.277236
45.479492 4.590023 -2.3955839
13.852715 1.4450217 -2.205956
18.064821 1.8844001 -2.2301128
25.883104 2.6999507 -2.2767618
45.445877 4.7406073 -2.3946371
13.838766 1.4904869 -2.2045181
18.055334 1.944627 -2.2297342
25.860615 2.785285 -2.2755921
45.411476 4.890986 -2.3936749
13.818415 1.5351801 -2.2020836
18.037769 2.0039365 -2.2283821
25.85618 2.8725359 -2.2760365
45.370815 5.0405474 -2.3924088
13.818769 1.5821408 -2.2029731
18.036985 2.0650935 -2.2291281
25.845345 2.9590895 -2.2759433
45.353325 5.1926007 -2.3923914
13.800467 1.6269406 -2.2009127
18.022438 2.1246698 -2.2281983
25.821449 3.0440972 -2.274725
45.307423 5.3413033 -2.3909011
13.81606 1.6757641 -2.204283
18.015434 2.1851106 -2.2282257
25.797064 3.1289523 -2.273488
45.281929 5.4922919 -2.3905141
13.7838 1.7187649 -2.2000432
18.020128 2.2470121 -2.2297254
25.7852 3.2152743 -2.27338
45.237358 5.6408525 -2.3891463
13.791187 1.7666643 -2.2021554
17.991226 2.3046932 -2.2270927
25.782604 3.3027761 -2.2741146
45.203667 5.7906327 -2.3883789
13.779328 1.8121232 -2.2012196
17.980864 2.3646681 -2.226779
25.77458 3.3896217 -2.2743964
45.176441 5.9411654 -2.3879793
13.793532 1.8610591 -2.204473
17.968098 2.4243023 -2.226192
25.738882 3.4727566 -2.2722611
45.124779 6.0883517 -2.3863142
13.777191 1.9059091 -2.2028701
17.958916 2.4844005 -2.226074
25.733334 3.5598979 -2.2728124
45.090343 6.2377081 -2.3855858
13.759501 1.9504999 -2.2010751
17.96133 2.5461369 -2.2274191
25.712311 3.6448891 -2.272022
45.054447 6.386764 -2.3848059
13.744252 1.9953686 -2.1996934
17.922556 2.6019681 -2.2236798
25.693422 3.7301302 -2.2714453
45.013954 6.5350542 -2.3838091
13.761651 2.0450306 -2.203563
17.923948 2.6635628 -2.2249482
25.680536 3.8162196 -2.2714245
44.984344 6.684834 -2.3834145
13.732096 2.0877202 -2.199939
17.919466 2.7243352 -2.2255132
25.645643 3.8989625 -2.2694819
44.949902 6.8338304 -2.3827903
13.725766 2.1338656 -2.2000589
17.908691 2.7841609 -2.2253218
25.637896 3.9857757 -2.2699661
44.914368 6.9825778 -2.3821344
13.719189 2.1799777 -2.2001638
17.897539 2.8439169 -2.2251081
25.619995 4.0710144 -2.2695768
44.874866 7.1306114 -2.381294
13.70726 2.2252257 -2.199435
17.870865 2.9011419 -2.2229888
25.595364 4.1551309 -2.2686162
44.811562 7.2746735 -2.3792155
13.694272 2.2702675 -2.1985598
17.878651 2.9639633 -2.2251811
25.575953 4.2400393 -2.2681429
44.779427 7.423635 -2.3788176
13.684133 2.3157542 -2.1981661
17.863424 3.0230124 -2.224535
25.557487 4.3250723 -2.2677789
44.736294 7.5706854 -2.3778613
13.665889 2.3598251 -2.1964941
17.8517 3.0826309 -2.2243493
25.545443 4.4111862 -2.2680097
44.698509 7.7185373 -2.3772151
13.667095 2.4072506 -2.197973
17.832302 3.1408885 -2.223232
25.524214 4.4957018 -2.2674503
44.655739 7.8654284 -2.3763297
13.668303 2.4547405 -2.1994784
17.812998 3.1991017 -2.2221501
25.505342 4.5805979 -2.2671254
44.630089 8.0152817 -2.3763814
13.652625 2.4992049 -2.1982918
17.824358 3.2628686 -2.2249196
25.501413 4.6682053 -2.2681546
44.582924 8.1612043 -2.3753138
13.644197 2.5449705 -2.1982961
17.788572 3.3179963 -2.2218287
25.459007 4.7487168 -2.2657864
44.521046 8.304245 -2.3734868
13.62781 2.5892251 -2.1970422
17.785984 3.3792603 -2.222908
25.43803 4.8331161 -2.2653489
44.474876 8.4500341 -2.3725226
13.617327 2.6345682 -2.196764
17.757975 3.4356666 -2.2208347
25.415625 4.9172058 -2.2648091
44.438786 8.5976496 -2.3721216
13.612472 2.6810083 -2.1974185
17.751326 3.4961653 -2.2214565
25.400074 5.0026045 -2.2649055
44.392441 8.7431955 -2.3711994
13.60604 2.7271612 -2.197844
13.830852 2.7722218 -1.7319895
13.835386 2.7731307 -1.234513
13.837936 2.7736421 -0.73963881
13.807792 2.7675998 -0.2458093
13.79 2.7640336 0.24549256
13.791609 2.7643561 0.73716259
13.797074 2.7654514 1.2310945
13.78532 2.7630956 1.726288
13.77177 2.7603798 2.2246151
13.766685 2.7593603 2.7291927
13.773866 2.7607996 3.243191
13.754524 2.756923 3.758812
13.593699 2.7721279 -2.1973395
13.64874 2.7833524 -1.7103435
13.641123 2.7817988 -1.2180045
13.625481 2.778609 -0.72877687
13.616965 2.7768726 -0.24257655
13.609696 2.7753901 0.24244706
13.613214 2.7761075 0.7281208
13.600221 2.7734578 1.2143524
13.598782 2.7731643 1.7040831
13.585019 2.7703578 2.1959364
13.581141 2.7695668 2.6942351
13.559351 2.7651234 3.1948464
13.569878 2.7672701 3.7108667
13.483809 2.7968395 -2.1810799
13.477881 2.79561 -1.6900979
13.486588 2.797416 -1.205037
13.465254 2.7929909 -0.72070378
13.440696 2.7878969 -0.2396016
13.43194 2.7860808 0.23944552
13.4327 2.7862384 0.71896136
13.418539 2.7833011 1.1989567
13.415576 2.7826865 1.682285
13.397282 2.7788918 2.1670837
13.400854 2.7796328 2.6603036
13.387334 2.7768283 3.1564918
13.388125 2.7769926 3.6636896
13.294854 2.8041718 -2.1520243
13.274357 2.7998483 -1.6657442
13.27777 2.8005683 -1.1872113
13.276277 2.8002534 -0.71108764
13.255017 2.7957692 -0.23645735
13.241049 2.7928228 0.23620817
13.250092 2.7947302 0.70968509
13.243514 2.7933431 1.1841483
13.218603 2.7880888 1.6587479
13.232641 2.7910497 2.1419539
13.224023 2.7892318 2.6270413
13.204141 2.7850382 3.1154823
13.209754 2.7862222 3.617414
13.12617 2.8145928 -2.126235
13.119043 2.8130646 -1.6474289
13.107891 2.8106732 -1.1728578
13.098131 2.8085806 -0.70204645
13.09602 2.8081279 -0.23378764
13.090544 2.8069534 0.23368987
13.077339 2.804122 0.70093197
13.076368 2.8039141 1.1700373
13.067286 2.8019664 1.6409293
13.059573 2.8003128 2.1154475
13.054516 2.7992284 2.5952177
13.038962 2.7958932 3.0787034
13.031095 2.7942061 3.5710344
12.945684 2.8213251 -2.0985198
12.946226 2.8214431 -1.626906
12.939463 2.8199692 -1.1586268
12.93012 2.8179331 -0.69354373
12.912265 2.8140416 -0.23067442
12.915818 2.814816 0.23073789
12.904805 2.8124158 0.69218588
12.89663 2.8106344 1.1547915
12.902179 2.8118436 1.6213708
12.895244 2.8103323 2.0903432
12.876596 2.8062685 2.5617037
12.877477 2.8064601 3.0427787
12.87816 2.8066089 3.5316832
12.851433 2.8459523 -2.0847764
12.848708 2.8453491 -1.6158412
12.858706 2.8475633 -1.1522441
12.877937 2.8518217 -0.69125372
12.855109 2.8467665 -0.22982256
12.85322 2.846348 0.22978878
12.859418 2.8477206 0.69025964
12.858337 2.8474815 1.152211
12.880984 2.8524966 1.6199001
12.8724 2.8505957 2.0881777
12.889155 2.854306 2.5660913
12.89139 2.8548007 3.0483108
12.887596 2.8539608 3.5368755
12.858233 2.8927176 -2.0874412
12.854384 2.8918519 -1.6177652
12.84833 2.8904898 -1.1521763
12.864738 2.8941813 -0.69106227
12.866067 2.89448 -0.23019066
12.868842 2.8951042 0.23024032
12.867544 2.8948123 0.69121295
12.878433 2.8972621 1.1548758
12.876963 2.8969312 1.6206068
12.879947 2.8976023 2.0909662
12.89268 2.9004672 2.5687149
12.896309 2.9012835 3.0517571
12.895859 2.9011824 3.5417926
12.858429 2.9380898 -2.0890603
12.861071 2.9386935 -1.6198375
12.859379 2.938307 -1.154044
12.877807 2.9425178 -0.69229031
12.864024 2.9393685 -0.23032914
12.871223 2.9410133 0.23045805
12.869997 2.9407332 0.69187045
12.878248 2.9426186 1.1557374
12.862571 2.9390361 1.6200265
12.874971 2.94187 2.091748
12.879793 2.9429717 2.5680988
12.883361 2.9437869 3.0510116
12.888909 2.9450548 3.5425761
12.860754 2.9840271 -2.0910518
12.863755 2.9847236 -1.6214271
12.870569 2.9863045 -1.1559403
12.865321 2.9850869 -0.69215322
12.868711 2.9858732 -0.230591
12.898582 2.9928045 0.23112628
12.869029 2.9859474 0.69235271
12.878067 2.9880443 1.1566137
12.876394 2.9876561 1.6230201
12.889658 2.9907339 2.0957515
12.881073 2.9887419 2.5703375
12.900818 2.9933231 3.0575051
12.907122 2.9947855 3.5503216
12.852748 3.0276179 -2.0913887
12.852289 3.0275099 -1.6212521
12.864476 3.0303807 -1.1562991
12.86485 3.0304687 -0.69267064
12.86628 3.0308053 -0.23072824
12.865177 3.0305457 0.23070846
12.866855 3.030941 0.69277859
12.873401 3.0324831 1.1571013
12.892089 3.0368853 1.6262727
12.887767 3.035867 2.0970871
12.902327 3.0392969 2.5765975
12.897356 3.038126 3.0590816
12.901357 3.0390685 3.5515187
12.859669 3.0747929 -2.0941806
12.845564 3.0714204 -1.6216936
12.861892 3.0753245 -1.1569871
12.872625 3.0778909 -0.69364101
12.879921 3.0796354 -0.23115674
12.87292 3.0779614 0.23103109
12.870584 3.0774031 0.69353104
12.895005 3.0832419 1.1599658
12.871069 3.0775189 1.6249136
12.882143 3.0801668 2.0978408
12.895275 3.0833066 2.5772393
12.894036 3.0830104 3.0607285
12.899172 3.0842383 3.5537438
12.859879 3.1204617 -2.095907
12.857585 3.1199052 -1.6245227
12.874751 3.1240706 -1.1590796
12.873689 3.1238129 -0.69425881
12.878775 3.125047 -0.2313229
12.875028 3.1241376 0.23125561
12.864391 3.1215568 0.69375736
12.886632 3.1269536 1.1601492
12.880093 3.1253667 1.6273664
12.880189 3.1253901 2.0992172
12.890384 3.1278639 2.5783432
12.909124 3.1324112 3.0667861
12.907243 3.1319547 3.5588405
12.867417 3.1680107 -2.098855
12.868567 3.1682935 -1.6272432
12.869019 3.1684051 -1.1595134
12.871654 3.1690538 -0.69471812
12.86223 3.1667335 -0.23121515
12.884542 3.1722271 0.23161624
12.894125 3.1745861 0.69593096
12.907121 3.1777859 1.1629463
12.901319 3.1763575 1.6313847
12.8855 3.1724627 2.1018045
12.897136 3.1753275 2.5818086
12.912543 3.179121 3.0701134
12.907927 3.1779842 3.5619471
12.863726 3.2128839 -2.099998
12.869656 3.214365 -1.6287346
12.884762 3.2181377 -1.1618974
12.885501 3.2183225 -0.69604397
12.867266 3.213768 -0.23149806
12.888678 3.219116 0.2318833
12.862451 3.2125654 0.69479883
12.884622 3.2181027 1.1618848
12.895484 3.2208159 1.6320033
12.891923 3.2199264 2.1046011
12.913438 3.2253003 2.5872223
12.895708 3.2208719 3.068661
12.908627 3.2240984 3.5651031
12.858112 3.2573206 -2.100853
12.862158 3.2583454 -1.6291591
12.882501 3.2634988 -1.1626737
12.880342 3.2629521 -0.69635236
12.887519 3.26477 -0.23205806
12.875875 3.2618203 0.2318484
12.876998 3.2621047 0.69617158
12.896337 3.2670038 1.1639224
12.90188 3.2684085 1.6341904
12.890487 3.265522 2.1061423
12.898929 3.2676606 2.5864959
12.907596 3.2698562 3.0740812
12.906012 3.269455 3.5673883
12.857825 3.3031635 -2.1026034
12.863583 3.3046429 -1.6307338
12.875016 3.30758 -1.1629926
12.882833 3.3095882 -0.69708306
12.882861 3.3095953 -0.23217271
12.891787 3.3118882 0.23233356
12.900204 3.3140507 0.69802296
12.892653 3.3121109 1.1645857
12.890859 3.31165 1.6341916
12.89367 3.3123722 2.1084652
12.907154 3.3158362 2.5903599
12.906383 3.3156381 3.0764227
12.901254 3.3143203 3.5691247
12.875673 3.3538074 -2.1073492
12.871731 3.3527806 -1.6331826
12.879109 3.3547027 -1.1643718
12.887031 3.356766 -0.69791526
12.874932 3.3536143 -0.23223114
12.892204 3.3581133 0.23254269
12.894412 3.3586884 0.69831496
12.895538 3.3589818 1.1658571
12.904267 3.3612556 1.637311
12.908936 3.3624716 2.1127932
12.909407 3.3625944 2.5930603
12.915187 3.3640997 3.0811923
12.919473 3.3652163 3.5772665
12.878806 3.400774 -2.1097164
12.882416 3.4017272 -1.6359763
12.885078 3.4024301 -1.1659362
12.890174 3.4037757 -0.69869959
12.895817 3.4052658 -0.23281248
12.890517 3.4038665 0.23271681
12.897931 3.4058239 0.69912004
12.895123 3.4050825 1.1668451
12.900318 3.4064543 1.6382498
12.915114 3.4103615 2.115664
12.916553 3.4107413 2.5967779
12.914438 3.410183 3.0837243
12.906639 3.4081235 3.5768566
12.886001 3.4489317 -2.1127772
12.89108 3.4502912 -1.6385365
12.891876 3.4505043 -1.1675916
12.900789 3.4528899 -0.69989854
12.901645 3.453119 -0.2331254
12.888237 3.4495306 0.23288314
12.899179 3.4524589 0.69981116
12.906565 3.4544358 1.1689219
12.90316 3.4535246 1.6400719
12.924794 3.4593148 2.1191378
12.901847 3.4531732 2.5961347
12.906754 3.4544866 3.0846379
12.931106 3.4610043 3.5868328
12.88809 3.4958398 -2.1150298
12.887047 3.4955566 -1.6395043
12.884347 3.4948244 -1.1679643
12.893322 3.4972589 -0.70012563
12.902745 3.499815 -0.23335601
12.890257 3.4964275 0.23313014
12.891656 3.4968071 0.70003521
12.894734 3.497642 1.168906
12.887384 3.4956484 1.6395472
12.914155 3.5029099 2.1193073
12.90712 3.5010016 2.5995429
12.912 3.5023251 3.0886805
12.919967 3.5044863 3.5869823
12.887854 3.5422077 -2.1169279
12.90264 3.5462718 -1.6429915
12.879826 3.5400014 -1.1686239
12.901363 3.5459208 -0.70120394
12.901941 3.5460799 -0.2335552
12.891732 3.5432739 0.23337038
12.881829 3.5405521 0.70014226
12.900853 3.5457807 1.1705317
12.90354 3.546519 1.6431061
12.909877 3.5482609 2.1205454
12.917798 3.5504379 2.6040764
12.903362 3.5464704 3.0894413
12.917201 3.5502739 3.5894988
12.900602 3.5922756 -2.1209886
12.893322 3.5902483 -1.6433285
12.887362 3.588589 -1.1703928
12.897051 3.5912867 -0.70162004
12.907078 3.5940788 -0.23386499
12.900808 3.5923331 0.23375139
12.909739 3.59482 0.70231032
12.917242 3.596909 1.1731064
12.90193 3.5926454 1.6444256
12.919623 3.5975723 2.1241157
12.920879 3.5979218 2.6071148
12.917796 3.5970635 3.0957675
12.920766 3.5978904 3.5938215
12.878566 3.6327105 -2.1193559
12.905432 3.6402888 -1.6464183
12.893848 3.6370215 -1.1720827
12.898692 3.6383877 -0.70236903
12.901618 3.6392131 -0.23398584
12.910694 3.6417732 0.23415044
12.911649 3.6420424 0.70307457
12.919787 3.6443384 1.1744406
12.919666 3.644304 1.6482344
12.933523 3.6482127 2.1284001
12.909738 3.6415033 2.6073155
12.930194 3.6472735 3.1016517
12.917465 3.6436832 3.5962811
12.892295 3.6832924 -2.1236358
12.90799 3.6877763 -1.6483128
12.888358 3.6821678 -1.1726993
12.89446 3.6839108 -0.70280719
12.896523 3.6845005 -0.23411617
12.904514 3.6867836 0.23426124
12.924833 3.6925886 0.70446271
12.9066 3.6873794 1.1743591
12.924767 3.6925697 1.6504554
12.907584 3.6876607 2.1261542
12.924564 3.6925116 2.6127956
12.932926 3.6949005 3.1052613
12.93684 3.6960189 3.6051052
12.889132 3.7291758 -2.1251624
12.900824 3.7325585 -1.6489866
12.896566 3.7313268 -1.1745778
12.911165 3.7355509 -0.70439643
12.915701 3.7368631 -0.23469044
12.918284 3.7376106 0.23473738
12.919653 3.7380066 0.7048595
12.908068 3.7346547 1.1756253
12.91314 3.7361221 1.650561
12.926694 3.7400439 2.1313558
12.929958 3.740988 2.6164072
12.936477 3.7428741 3.1091096
12.928585 3.7405908 3.6062794
12.899284 3.7790284 -2.1289134
12.893989 3.777477 -1.6497226
12.891881 3.7768595 -1.1752979
12.909108 3.7819064 -0.70497203
12.909418 3.7819972 -0.23480536
12.922104 3.7857137 0.2350361
12.916819 3.7841651 0.70539308
12.917875 3.7844746 1.1776676
12.918722 3.784723 1.6528871
12.925974 3.7868476 2.1333184
12.943926 3.7921066 2.6217914
12.935093 3.7895191 3.1118131
12.937389 3.7901919 3.6122596
13.25033 3.9301589 -2.189013
17.264765 5.1208739 -2.2111263
24.642067 7.3090434 -2.2487338
42.901237 12.724867 -2.3451722
13.22901 3.9721398 -2.1876786
17.254671 5.1808844 -2.2120459
24.608091 7.3888202 -2.2478812
42.82642 12.859052 -2.3434258
13.216949 4.0168762 -2.1878989
17.216808 5.2325082 -2.2094285
24.59137 7.4737744 -2.2486303
42.76804 12.998002 -2.3426027
13.218575 4.0658336 -2.1904125
17.203459 5.291523 -2.2099795
24.558208 7.5537329 -2.2479012
42.695919 13.132618 -2.3410511
13.199518 4.1084642 -2.1895249
17.184872 5.3489404 -2.2098832
24.529867 7.6351337 -2.2476375
42.644794 13.273561 -2.3406749
13.186661 4.1530089 -2.1896894
17.165054 5.4059649 -2.2096531
24.48807 7.7122769 -2.2461646
42.592789 13.41418 -2.3402758
13.167909 4.1956835 -2.1888993
17.149803 5.4644322 -2.2100363
24.463606 7.7948256 -2.2463052
42.517452 13.547313 -2.338619
13.156942 4.2408328 -2.1894276
17.115553 5.516798 -2.2079935
24.417179 7.870307 -2.2444525
42.458614 13.685542 -2.3378935
13.137107 4.2831144 -2.1885042
17.101183 5.5755296 -2.208539
24.383488 7.9497924 -2.243793
42.38847 13.819989 -2.3365693
13.111002 4.3232884 -2.186558
17.074326 5.6301751 -2.2074962
24.368092 8.0352583 -2.2448428
42.338699 13.960979 -2.3363929
13.094878 4.3667045 -2.1862984
17.049032 5.6852822 -2.2066779
24.330254 8.113327 -2.2438502
42.280266 14.099056 -2.3357639
13.075763 4.4091005 -2.1855628
17.028927 5.7420931 -2.2065551
24.286182 8.1892138 -2.2423055
42.19083 14.226598 -2.3334451
13.055003 4.4509034 -2.1845748
17.008821 5.7988973 -2.2064569
24.282848 8.2788658 -2.2445478
42.132099 14.364295 -2.3328474
13.041985 4.4953313 -2.1849062
16.964535 5.8473616 -2.2032425
24.233847 8.3529596 -2.2425945
42.067665 14.499947 -2.3319583
13.032935 4.5411572 -2.1859288
16.960529 5.909677 -2.2052834
24.207453 8.4347734 -2.2427564
42.005928 14.636422 -2.3312433
13.024789 4.587348 -2.1871297
16.934357 5.964303 -2.204468
24.16106 8.5095577 -2.2410891
41.924538 14.765878 -2.3294609
12.993665 4.6254134 -2.1844952
16.918558 6.0225759 -2.2050278
24.133579 8.5909395 -2.2411993
41.872318 14.905478 -2.3293231
12.970297 4.6661515 -2.1831846
16.890894 6.0766129 -2.2040653
24.099781 8.6700583 -2.2407475
41.792469 15.035122 -2.3276722
12.966995 4.7141261 -2.185277
16.885464 6.1386776 -2.2060299
24.056684 8.7457619 -2.2394543
41.731785 15.17151 -2.3271122
12.946725 4.7559619 -2.184536
16.849051 6.189476 -2.2039714
24.027002 8.8262873 -2.2394333
41.65897 15.303368 -2.3259001
12.935712 4.8012013 -2.1853817
16.824011 6.2443767 -2.2034223
23.992647 8.9050779 -2.2390015
41.593632 15.437836 -2.3251288
12.913813 4.8423967 -2.1844125
16.792652 6.2968769 -2.2020681
23.938128 8.9762735 -2.2367098
41.519215 15.568795 -2.3238738
12.90378 4.8880448 -2.1854753
16.776089 6.3549027 -2.2026775
23.921669 9.0616999 -2.237998
41.437096 15.69667 -2.3222103
12.879409 4.9282541 -2.184134
16.756021 6.4116244 -2.202853
23.874935 9.1356487 -2.236479
41.383537 15.835246 -2.3221712
12.856268 4.9688792 -2.1830227
16.731352 6.4665785 -2.2024477
23.833065 9.2113523 -2.2354374
41.306961 15.964922 -2.3208647
12.833417 5.0095677 -2.1819823
16.708527 6.5222292 -2.2023094
23.790747 9.2867975 -2.234376
41.228764 16.093786 -2.3194897
12.820642 5.0541806 -2.1826789
16.676788 6.5743589 -2.201019
23.770685 9.3709307 -2.2354302
41.158478 16.225582 -2.318583
12.798633 5.0951505 -2.1818283
16.649166 6.6280522 -2.200294
23.731939 9.4477129 -2.2347527
41.088139 16.357235 -2.3176973
12.77297 5.1346135 -2.1803761
16.63286 6.6862526 -2.2010894
23.687214 9.5220366 -2.2335348
41.017345 16.488586 -2.3168094
12.75966 5.1790237 -2.1810558
16.606983 6.7406158 -2.2006433
23.653963 9.6009178 -2.2334223
40.933884 16.614674 -2.3152287
12.754806 5.226932 -2.1832094
16.579029 6.7941017 -2.1999452
23.6129 9.676589 -2.2325959
40.868607 16.747995 -2.3146996
12.722226 5.2634678 -2.1806412
16.548775 6.8465967 -2.1989646
23.580664 9.755846 -2.2326283
40.817226 16.886995 -2.3149834
12.701954 5.305027 -2.180203
16.526226 6.9022512 -2.1990309
23.538931 9.8311386 -2.2317853
40.71273 17.003851 -2.3122771
12.67445 5.3435183 -2.178545
16.500013 6.9563661 -2.1986339
23.502813 9.9087305 -2.2314982
40.645721 17.136141 -2.3117216
12.651164 5.383728 -2.177633
16.482283 7.0140686 -2.1993928
23.474796 9.9897461 -2.2320056
40.572109 17.265541 -2.3108141
12.647195 5.4321938 -2.1800725
16.451406 7.0661697 -2.1984217
23.414528 10.056953 -2.2294688
40.493027 17.392469 -2.3096182
12.625634 5.4731464 -2.179507
16.399151 7.1089463 -2.1946115
23.377462 10.134007 -2.2291622
40.412418 17.518572 -2.308358
12.604588 5.5142984 -2.1790531
16.393944 7.1720791 -2.1971204
23.338554 10.210231 -2.228704
40.350704 17.652765 -2.3082006
12.572215 5.5504298 -2.1766615
16.363592 7.2242618 -2.1962864
23.298782 10.286036 -2.2281866
40.274349 17.780474 -2.3072298
12.565073 5.5976911 -2.1786621
16.335945 7.2776003 -2.1958385
23.268623 10.366081 -2.2286139
40.17635 17.898407 -2.3050406
12.537816 5.636004 -2.1772003
16.309202 7.3313189 -2.1955354
23.22633 10.440709 -2.2279034
40.103939 18.027538 -2.3043411
12.525091 5.6808405 -2.1782858
16.279234 7.3835568 -2.1948214
23.169762 10.508802 -2.2258444
40.024769 18.153505 -2.3032763
12.500478 5.7202873 -2.1773286
16.252632 7.437294 -2.1945846
23.14282 10.590282 -2.226655
39.946419 18.279701 -2.3022816
12.478897 5.7610908 -2.1769218
16.221066 7.4887252 -2.1937001
23.10099 10.664957 -2.2260582
39.868523 18.405968 -2.3013361
12.459556 5.8029184 -2.1769297
16.201897 7.5458775 -2.1945169
23.05068 10.735634 -2.2246661
39.791046 18.532297 -2.3004375
12.429415 5.8396735 -2.175072
16.167477 7.5959148 -2.1932919
23.012583 10.81193 -2.2244754
39.708855 18.656288 -2.2992892
12.412752 5.8827295 -2.1755955
16.148741 7.6533122 -2.1942191
22.974739 10.888332 -2.2243335
39.61573 18.774935 -2.297529
12.404037 5.9296098 -2.1775403
16.115343 7.7037578 -2.1931784
22.91407 10.953813 -2.2220032
39.541916 18.902567 -2.2969108
12.367159 5.9630032 -2.1745639
16.082598 7.7544556 -2.1922481
22.881971 11.03287 -2.222465
39.469315 19.030695 -2.296387
12.33513 5.9986148 -2.1724563
16.055868 7.808022 -2.1921606
22.835842 11.105146 -2.2215886
39.374622 19.14801 -2.2946
12.335003 6.0497742 -2.1759942
16.019236 7.8567276 -2.1907432
22.799007 11.181907 -2.2216399
39.296093 19.272999 -2.2937763
12.30877 6.0881891 -2.1749551
16.004349 7.9161043 -2.1923249
22.745676 11.250513 -2.2201064
39.216896 19.397541 -2.292937
12.282976 6.1267743 -2.174015
15.96662 7.9641838 -2.1908023
22.710657 11.328123 -2.2203829
39.141846 19.524035 -2.2923634
12.259666 6.1665645 -2.1735363
15.932903 8.0141888 -2.1898503
22.65852 11.397147 -2.2190092
39.045681 19.639828 -2.2905753
12.232893 6.2045765 -2.1724658
15.902819 8.065979 -2.1894202
22.623165 11.474567 -2.2193022
38.961067 19.761221 -2.2894852
12.218018 6.2486229 -2.1735325
15.88405 8.1235304 -2.1905737
22.575781 11.545861 -2.2184386
38.883793 19.886215 -2.2888496
12.199691 6.2909403 -2.1740122
15.83569 8.1658945 -2.1876678
22.531588 11.618728 -2.2179117
38.787388 20.001257 -2.2871094
12.168668 6.3266811 -2.1722517
15.816697 8.2233486 -2.1888409
22.487436 11.69157 -2.2174118
38.706448 20.124088 -2.2863023
12.147908 6.3677177 -2.1723447
15.787272 8.2754078 -2.1885962
22.427082 11.755878 -2.2153344
38.6213 20.2446 -2.2852695
12.127327 6.408854 -2.1724949
15.752776 8.3247728 -2.1876709
22.374838 11.824293 -2.2140775
38.535461 20.364599 -2.2842176
12.103675 6.4483619 -2.1721187
15.719523 8.3747435 -2.1869402
22.332111 11.897671 -2.2137845
38.453938 20.486744 -2.2834439
12.079888 6.4877801 -2.1717415
15.676528 8.4194374 -2.1848736
22.295616 11.974369 -2.214134
38.369122 20.607012 -2.2824974
12.05231 6.5251274 -2.1707044
15.66203 8.4794321 -2.1868031
22.267349 12.055555 -2.2153285
38.286167 20.728153 -2.2816842
12.032922 6.5668955 -2.1711657
15.631706 8.5309105 -2.1865504
22.207247 12.119473 -2.2133794
38.198895 20.846819 -2.2806356
12.005871 6.6044707 -2.1702681
15.606359 8.5851116 -2.1870189
22.164087 12.19254 -2.2131395
38.09454 20.955938 -2.2785873
11.984614 6.6452165 -2.1704409
15.552775 8.6236868 -2.1835496
22.121296 12.265793 -2.212961
38.007591 21.074409 -2.2776
11.9613 6.6848207 -2.1702654
15.543748 8.6869459 -2.1863589
22.068409 12.333388 -2.2117944
37.939922 21.203512 -2.2777925
11.936812 6.7237568 -2.1699007
15.496825 8.7290373 -2.1838634
22.013615 12.399808 -2.2104571
37.83403 21.311117 -2.275712
11.913202 6.7631731 -2.1697185
15.467808 8.7811365 -2.1839106
21.96423 12.469182 -2.2096837
37.742584 21.426617 -2.2745199
11.882751 6.7986679 -2.1683118
15.432698 8.8297548 -2.1831212
21.922012 12.54259 -2.2096548
37.656521 21.545023 -2.2736738
11.867909 6.8430943 -2.1697781
15.410425 8.885726 -2.1841726
21.876678 12.614199 -2.2093358
37.579826 21.668709 -2.273417
11.852433 6.8872247 -2.1711583
15.364098 8.9277859 -2.1818368
21.823126 12.681005 -2.208209
37.477257 21.777325 -2.2716165
11.80895 6.9150233 -2.1674278
15.353065 8.9903669 -2.1845384
21.777235 12.752199 -2.2078795
37.380501 21.889076 -2.2701874
11.78837 6.9561534 -2.1679189
15.2946 9.0251303 -2.1805127
21.739376 12.828104 -2.2083893
37.297009 22.008448 -2.2695854
11.762628 6.9942393 -2.1674852
15.273125 9.0816345 -2.1817801
21.689939 12.897171 -2.2077475
37.201351 22.120495 -2.2682648
11.736843 7.0322785 -2.1670663
15.226277 9.1230173 -2.179445
21.634754 12.962738 -2.206542
37.110214 22.235056 -2.2672408
11.715834 7.0731812 -2.1675539
15.194263 9.1732073 -2.1792529
21.573416 13.024483 -2.2047274
37.019711 22.34985 -2.2662771
11.688866 7.1104836 -2.1669631
15.169591 9.2278528 -2.1801393
21.541769 13.104129 -2.205971
36.924206 22.461458 -2.265028
11.654625 7.1433001 -2.1650431
15.129702 9.2732277 -2.1788628
21.491941 13.172743 -2.2053788
36.832481 22.575197 -2.2640316
11.627308 7.1802964 -2.1644287
15.101928 9.326004 -2.1793537
21.428034 13.232611 -2.2033613
36.740944 22.688904 -2.2630682
11.614449 7.2262588 -2.166533
15.062564 9.3716011 -2.1781952
21.382381 13.303655 -2.2032411
36.649475 22.802511 -2.2621307
11.582816 7.2605586 -2.1651609
15.040606 9.4280357 -2.179579
21.334547 13.373322 -2.20292
36.549545 22.910673 -2.2606912
11.551509 7.2949958 -2.1638687
14.990446 9.4667501 -2.1768975
21.278442 13.437738 -2.2017667
36.456871 23.023203 -2.259721
11.519449 7.3288908 -2.1624539
14.96699 9.5222807 -2.1781154
21.232937 13.508795 -2.2017322
36.365627 23.136499 -2.2588611
11.504283 7.3735423 -2.1642356
14.926369 9.5668907 -2.1768596
21.175009 13.571887 -2.2004316
36.26289 23.242298 -2.2573073
11.486188 7.4163933 -2.1654973
14.901729 9.6217375 -2.1779587
21.131557 13.644209 -2.2006578
36.176525 23.358431 -2.2567935
11.458488 7.4530606 -2.1649737
14.851899 9.6602716 -2.1753974
21.082039 13.712605 -2.2002764
36.076332 23.465496 -2.2554383
11.427665 7.4876566 -2.1638813
14.824066 9.7130537 -2.1760786
21.01631 13.770348 -2.1982229
35.98032 23.575094 -2.254365
11.395661 7.5214186 -2.1625843
14.790069 9.7618113 -2.1758802
20.97356 13.843069 -2.1985936
35.879257 23.681198 -2.252995
11.363005 7.5546803 -2.1611817
14.753366 9.8087587 -2.1753066
20.926418 13.912905 -2.1985295
35.793575 23.797318 -2.2526121
11.345023 7.5977001 -2.1625946
14.70771 9.8496733 -2.1734319
20.870932 13.977148 -2.1976111
35.699818 23.907972 -2.2517438
11.318714 7.6351743 -2.162447
14.672331 9.897397 -2.1730955
20.816593 14.042082 -2.1968346
35.59325 24.009855 -2.250087
11.274007 7.660141 -2.1588004
14.650843 9.9545374 -2.1748438
20.761108 14.106167 -2.1959579
35.49152 24.114767 -2.2487545
11.255695 7.7029862 -2.1602275
14.615424 10.002261 -2.174552
20.714247 14.176073 -2.1960163
35.381512 24.213812 -2.2469158
11.230957 7.7414742 -2.1604488
14.564433 10.039232 -2.1719611
20.653301 14.236276 -2.194603
35.302326 24.333818 -2.2470555
11.216837 7.7873473 -2.1627431
14.526672 10.085217 -2.1713605
20.598927 14.300912 -2.193908
35.211895 24.446041 -2.2465038
11.178294 7.8162613 -2.1603525
14.478333 10.123767 -2.1691964
20.542023 14.363714 -2.1929643
35.112221 24.551716 -2.245384
14.46015 10.183409 -2.1715755
20.489981 14.429853 -2.1925609
35.006981 24.653297 -2.2439272
14.411667 10.221721 -2.1694291
20.445183 14.501095 -2.1929576
34.911938 24.761887 -2.2431443
14.393925 10.281848 -2.1719353
20.381395 14.558808 -2.1913393
34.792484 24.852917 -2.2408104
14.350777 10.323868 -2.1706355
20.332882 14.627359 -2.1913838
34.692448 24.957552 -2.2397444
14.313498 10.370052 -2.1702437
20.264709 14.681674 -2.1893296
34.598404 25.066359 -2.2390859
14.263719 10.407092 -2.1679745
20.220013 14.752922 -2.1898322
34.488174 25.163254 -2.2373998
14.244084 10.466127 -2.1703117
20.154451 14.808887 -2.1880968
34.387478 25.26689 -2.2363503
14.192819 10.501917 -2.1678534
20.10206 14.874436 -2.1878111
34.301884 25.381536 -2.2363057
14.161758 10.552596 -2.1685009
20.051941 14.941649 -2.1877964
34.208958 25.490713 -2.2358069
14.130051 10.602835 -2.1690772
19.985199 14.99639 -2.1859879
34.087471 25.578379 -2.2334592
14.079722 10.639043 -2.1668148
19.935646 15.063947 -2.18608
33.991112 25.68466 -2.2327757
14.053921 10.69376 -2.1683497
19.875042 15.123104 -2.1849821
33.881172 25.7805 -2.2312195
14.010575 10.73514 -2.1672032
19.819597 15.18611 -2.1844721
33.784531 25.88628 -2.2305584
13.962282 10.772625 -2.1653078
19.764141 15.249061 -2.1839828
33.67942 25.98542 -2.2293582
13.924633 10.818249 -2.165082
19.704185 15.308467 -2.183017
33.565189 26.077282 -2.2275717
13.897525 10.872105 -2.1665227
19.649151 15.371631 -2.1826174
33.47905 26.190832 -2.2276704
13.854169 10.913263 -2.1654561
19.614389 15.450727 -2.1844981
33.361813 26.279903 -2.2257199
13.802453 10.947716 -2.1630976
19.540098 15.498654 -2.1819994
33.24966 26.372692 -2.2241242
13.766966 10.994967 -2.1633015
19.49404 15.568886 -2.1826727
33.155651 26.479712 -2.2237623
13.730206 11.041209 -2.1633301
19.417776 15.614896 -2.1799836
33.050297 26.577551 -2.2226603
13.702382 11.094689 -2.1647949
19.365082 15.679724 -2.1799574
32.955605 26.683842 -2.2222962
13.659195 11.135749 -2.1638582
19.307798 15.74081 -2.1794379
32.842682 26.775213 -2.2207227
13.608989 11.170981 -2.1618261
19.2528 15.803722 -2.1791985
32.736046 26.871487 -2.2195916
13.578405 11.222289 -2.1629326
19.183008 15.854384 -2.1773036
32.643642 26.97934 -2.2194474
13.518528 11.249299 -2.1593904
19.130217 15.919006 -2.1773572
32.524246 27.064707 -2.2174869
13.492616 11.304515 -2.1612935
19.085272 15.990208 -2.1783316
32.410465 27.154451 -2.215924
13.448019 11.344106 -2.1602304
19.018951 16.043478 -2.1768892
32.296848 27.244078 -2.2143891
13.419138 11.39697 -2.1617172
18.956659 16.100025 -2.1759257
32.204865 27.35182 -2.2143574
13.369348 11.432061 -2.1598587
18.89687 16.158617 -2.1752694
32.098404 27.447182 -2.2133524
13.325176 11.471857 -2.1589243
18.84227 16.221611 -2.1752326
31.98579 27.537079 -2.2119412
13.288044 11.517688 -2.1591527
18.769079 16.26849 -2.173068
31.878086 27.630993 -2.2108872
13.251844 11.564349 -2.1595588
18.717834 16.334297 -2.1734633
31.766184 27.721066 -2.2095599
13.202785 11.599744 -2.1578901
18.659851 16.39423 -2.1731009
31.65497 27.811522 -2.2082977
13.172193 11.651351 -2.1592624
18.600893 16.453262 -2.172647
31.547022 27.904652 -2.2072816
13.114243 11.678699 -2.1561697
18.54258 16.512825 -2.1722903
31.440786 27.999136 -2.2064044
13.083021 11.729783 -2.1574905
18.475079 16.564114 -2.1708765
31.33877 28.097252 -2.2058439
13.032618 11.76365 -2.1556706
18.416433 16.623251 -2.1705225
31.218975 28.17923 -2.2040498
12.991378 11.805712 -2.1553843
18.347681 16.67317 -2.1689959
31.115231 28.27548 -2.2034061
12.95024 11.847847 -2.1551375
18.291628 16.734549 -2.1689901
31.001919 28.362871 -2.2021036
12.910863 11.891586 -2.1552076
18.221661 16.783112 -2.1673539
30.89344 28.454489 -2.2011626
12.860684 11.925316 -2.1534936
18.177759 16.855677 -2.1688418
30.77133 28.533306 -2.1992662
12.818839 11.966698 -2.153193
18.10985 16.905987 -2.1674902
30.672615 28.633631 -2.19906
12.776826 12.0079 -2.1528866
18.049549 16.963305 -2.167068
30.553274 28.714539 -2.1973939
12.733068 12.04743 -2.1523075
17.985537 17.017069 -2.1662207
30.439018 28.799965 -2.1961091
12.686244 12.083996 -2.1512289
17.921089 17.07033 -2.1653395
30.335188 28.8951 -2.1955953
12.647722 12.128442 -2.1515803
17.857792 17.124601 -2.1646168
30.222214 28.981377 -2.1944392
12.598108 12.162209 -2.1500652
17.792347 17.176725 -2.1636527
30.120298 29.078123 -2.1941056
12.560738 12.207759 -2.1506605
17.738522 17.240038 -2.1641243
30.002979 29.159843 -2.1926692
12.512899 12.243114 -2.1494858
17.67309 17.292048 -2.1632025
29.892708 29.248205 -2.1917648
12.477972 12.291098 -2.150553
17.610514 17.346773 -2.1626499
29.766985 29.321184 -2.1897423
12.42376 12.320042 -2.1483171
17.542274 17.395824 -2.1614201
29.658165 29.410566 -2.1889789
12.380069 12.359316 -2.1479154
17.483086 17.453777 -2.1613257
29.536879 29.487366 -2.1873119
12.34236 12.404572 -2.1485767
17.425409 17.513243 -2.1614423
29.432268 29.580626 -2.1868973
12.296952 12.442092 -2.147922
17.341558 17.54624 -2.1583266
29.313101 29.659081 -2.1854193
12.25665 12.484762 -2.1481819
17.292343 17.614176 -2.1595395
29.216101 29.75985 -2.1856143
12.211281 12.522257 -2.1475766
17.215254 17.653664 -2.1572921
29.088247 29.829018 -2.1835194
12.15662 12.550113 -2.1453516
17.142605 17.697487 -2.1556115
28.977228 29.915182 -2.1827023
12.123118 12.599786 -2.1468825
17.095598 17.767778 -2.1571796
28.863413 29.998293 -2.1816931
12.079152 12.638632 -2.1465888
17.037842 17.826998 -2.1574216
28.749149 30.080746 -2.1806674
12.036222 12.678546 -2.1465018
16.976709 17.882689 -2.1572607
28.631445 30.159391 -2.1793971
11.98723 12.712029 -2.1453538
16.891794 17.913141 -2.1540902
28.512093 30.236052 -2.1780167
11.941583 12.748987 -2.1448224
16.83769 17.976135 -2.1548645
28.404486 30.324995 -2.177551
11.889356 12.778835 -2.1431253
16.775711 18.030754 -2.1546571
28.282015 30.397879 -2.1759634
11.851239 12.823814 -2.1439929
16.705381 18.076313 -2.1533964
28.176342 30.488644 -2.1756859
11.801496 12.856199 -2.1427796
16.63903 18.126066 -2.1526651
28.050934 30.557856 -2.1739011
11.760265 12.897823 -2.1431332
16.564369 18.166624 -2.1508741
27.935106 30.637239 -2.1728733
11.716166 12.93631 -2.1429889
16.507402 18.226513 -2.1514001
27.813713 30.710285 -2.1714277
11.664862 12.966775 -2.1415448
16.444756 18.280153 -2.151211
27.706005 30.798269 -2.1710684
11.612842 12.996323 -2.1399822
16.366644 18.316465 -2.1490147
27.583309 30.869411 -2.1695518
11.574963 13.041677 -2.141048
16.305716 18.371883 -2.1490903
27.464481 30.944624 -2.168354
11.530492 13.07964 -2.1409216
16.240931 18.422939 -2.1486809
27.347172 31.021328 -2.1672916
11.494503 13.127282 -2.1423995
16.175465 18.473169 -2.1482019
27.23337 31.101835 -2.1665249
11.4284 13.140424 -2.1382787
16.109354 18.522606 -2.1476576
27.116964 31.179201 -2.1655686
11.392552 13.188245 -2.1398327
16.045784 18.574919 -2.1474733
26.996559 31.251755 -2.1643088
11.348559 13.226704 -2.1398871
15.975068 18.618883 -2.1463518
26.878504 31.326797 -2.1632528
11.298208 13.257709 -2.1387627
15.907181 18.666037 -2.1456273
26.767599 31.410027 -2.1627905
11.250241 13.291435 -2.1381063
15.840553 18.714594 -2.1450918
26.637585 31.470591 -2.1607988
11.203044 13.326023 -2.1376159
15.762501 18.749498 -2.1430228
26.521076 31.546825 -2.1599157
11.153957 13.358308 -2.1367838
15.70701 18.811178 -2.1440413
26.396639 31.61339 -2.1584015
11.109929 13.396621 -2.1369419
15.640081 18.859188 -2.1435246
26.282568 31.692156 -2.1577506
11.059654 13.427365 -2.1359191
15.581499 18.917273 -2.1441765
26.163422 31.764629 -2.1567004
11.013841 13.463476 -2.1357772
15.503333 18.951496 -2.1421518
26.042437 31.834646 -2.1555138
10.961702 13.491791 -2.1344266
15.426622 18.987267 -2.1403368
25.920279 31.902981 -2.1542442
10.913881 13.525339 -2.1339331
15.35874 19.033758 -2.1397607
25.799648 31.972952 -2.1531157
10.872241 13.566559 -2.1346731
15.294848 19.085159 -2.1397622
25.681665 32.045998 -2.1522243
10.827698 13.604197 -2.134871
15.225532 19.129747 -2.1390259
25.563606 32.118771 -2.1513431
80.897064 101.64114 -2.2674932
10.777069 13.634154 -2.1338899
15.154135 19.171614 -2.1380138
25.450262 32.197327 -2.1508772
80.417 101.73618 -2.2635856
10.728081 13.666115 -2.1332507
15.090037 19.222654 -2.1380517
25.321133 32.25568 -2.149092
79.958328 101.85603 -2.2602749
10.680332 13.699612 -2.1328776
15.024141 19.271395 -2.1378579
25.200554 32.324631 -2.1480443
79.506699 101.98286 -2.2571614
10.636109 13.737629 -2.1332326
14.957661 19.319357 -2.137603
25.090885 32.407455 -2.1479459
79.036201 102.08338 -2.2535083
10.579136 13.759095 -2.1310458
14.888936 19.36437 -2.1370482
24.958838 32.461163 -2.145947
78.567276 102.18365 -2.2498939
10.538172 13.801333 -2.1321034
14.813309 19.400274 -2.1355174
24.838415 32.529671 -2.1449585
78.109482 102.29621 -2.2465935
10.491973 13.836765 -2.1321309
14.74368 19.443897 -2.1348658
24.712595 32.590855 -2.1435173
77.646133 102.39935 -2.2431288
10.442307 13.867595 -2.1314743
14.66666 19.477623 -2.1331575
24.592636 32.659519 -2.1425984
77.183762 102.5016 -2.2396872
10.386226 13.889788 -2.1295211
14.599528 19.524353 -2.1329026
24.476376 32.732937 -2.1420188
76.738762 102.62488 -2.2367461
10.331362 13.913442 -2.1278248
14.541796 19.583714 -2.1340489
24.351837 32.795082 -2.1407306
76.272858 102.71811 -2.233192
10.287688 13.952117 -2.1284525
14.466441 19.619324 -2.132632
24.223347 32.851597 -2.139106
75.810585 102.81398 -2.2297375
10.240388 13.985897 -2.1283562
14.390454 19.653887 -2.1311324
24.107355 32.924828 -2.1385996
75.35733 102.91992 -2.2265432
10.185022 14.008578 -2.1265991
14.321904 19.698484 -2.1307495
23.978643 32.980457 -2.1369789
74.88398 102.99615 -2.222748
10.147578 14.055919 -2.1286087
14.257553 19.748852 -2.1310148
23.861933 33.052357 -2.1364417
74.415802 103.07705 -2.2190971
10.098027 14.08656 -2.1281099
14.185712 19.788805 -2.1301818
23.742983 33.121021 -2.1357224
73.970383 103.18732 -2.2161191
10.039573 14.104648 -2.1257451
14.107438 19.819613 -2.1283946
23.618713 33.182053 -2.1345396
73.508621 103.27264 -2.212646
9.9952526 14.142511 -2.126389
14.036278 19.860252 -2.1276929
23.493433 33.241398 -2.1332779
73.056999 103.37002 -2.2094719
9.941287 14.166693 -2.1250012
13.969859 19.907553 -2.1277306
23.374752 33.309864 -2.1326303
72.598381 103.45531 -2.20608
9.8927565 14.198543 -2.1247916
13.901548 19.952147 -2.1275032
23.239668 33.354649 -2.130497
72.145424 103.54646 -2.202853
9.8466034 14.233811 -2.1251171
13.827398 19.988272 -2.1263998
23.118191 33.418625 -2.1296206
71.692146 103.63497 -2.19961
9.7999315 14.268356 -2.1253569
13.753879 20.025166 -2.1254067
22.997082 33.482944 -2.1287937
71.227524 103.70477 -2.1960106
7.551126 11.073548 -2.1228387
9.7456808 14.291811 -2.1239715
13.689239 20.074947 -2.125807
22.874556 33.544998 -2.1278508
70.779015 103.79576 -2.1928997
7.5127015 11.096951 -2.1224842
9.6928902 14.31729 -2.1229165
13.612144 20.106386 -2.1242917
22.745773 33.597599 -2.126338
70.325142 103.8767 -2.1896157
7.4740024 11.119918 -2.1220722
9.6453667 14.350503 -2.123034
13.547188 20.155684 -2.1246891
22.623814 33.660007 -2.1254752
69.880051 103.96845 -2.186599
7.4391966 11.14869 -2.1227911
9.5940294 14.378013 -2.122333
13.467718 20.183283 -2.1228266
22.504402 33.726036 -2.1248682
69.422348 104.03923 -2.1831799
7.3959556 11.164784 -2.1211221
9.547904 14.413322 -2.1228077
13.39787 20.225153 -2.1224937
22.380274 33.784805 -2.1238313
68.967964 104.11264 -2.1798558
7.3568201 11.186994 -2.1206434
9.4898825 14.430591 -2.1206529
13.331244 20.271877 -2.1226945
22.252083 33.837162 -2.1224205
68.511902 104.18118 -2.1764691
7.3254952 11.221132 -2.122447
9.4405994 14.461031 -2.1204629
13.257916 20.308365 -2.1218486
22.121857 33.886074 -2.1208241
68.073395 104.27425 -2.1736329
7.2799954 11.233538 -2.1201646
9.3990374 14.503366 -2.1220376
13.185876 20.346722 -2.1212251
21.999279 33.946415 -2.1199722
67.623894 104.34836 -2.1704392
