# .PCD v0.7 - Point Cloud Data file format
VERSION 0.7
FIELDS x y z
SIZE 4 4 4
TYPE F F F
COUNT 1 1 1
WIDTH 1392
HEIGHT 1
VIEWPOINT 0 0 0 1 0 0 0
POINTS 1392
DATA ascii
-0.44761539 -0.86447906 -0.1541855
-0.58425796 -1.1283766 -0.15601788
-0.80084676 -1.5466744 -0.15237974
-1.3432317 -2.5941815 -0.15309912
-3.982976 -7.692317 -0.15120119
-0.43982974 -0.85646319 -0.15249194
-0.56780165 -1.1056579 -0.15261254
-0.80817062 -1.5737189 -0.15477636
-1.3364687 -2.602453 -0.15332195
-3.9602594 -7.7116575 -0.1513195
-0.44428894 -0.87233138 -0.15505114
-0.56643516 -1.1121571 -0.15324663
-0.79744875 -1.5657368 -0.15372749
-1.323694 -2.5989838 -0.15285523
-3.9392924 -7.7345347 -0.15150838
-0.43488479 -0.86099297 -0.15277579
-0.56362015 -1.1158656 -0.15349637
-0.78734332 -1.558797 -0.15278608
-1.3116664 -2.5968614 -0.1524709
-3.9075601 -7.7362604 -0.15128469
-0.44068521 -0.87979442 -0.15584889
-0.55880797 -1.1156175 -0.15320365
-0.78423536 -1.5656661 -0.15320078
-1.3058834 -2.6070964 -0.15281391
-3.8811922 -7.7485042 -0.15126881
-0.43525553 -0.87627935 -0.15496685
-0.55054748 -1.108391 -0.15195693
-0.78259259 -1.5755565 -0.15391095
-1.3047378 -2.6267669 -0.15370961
-3.8499038 -7.7508287 -0.15106134
-0.43574986 -0.88470739 -0.15619807
-0.55257297 -1.1218946 -0.15355335
-0.77297902 -1.5693871 -0.15305424
-1.2931335 -2.6254621 -0.15337868
-3.8229241 -7.7617221 -0.15102299
-0.42561042 -0.87148058 -0.15361004
-0.55175865 -1.129782 -0.15437882
-0.77500159 -1.5868945 -0.15450737
-1.2788154 -2.6185043 -0.15272088
-3.8016336 -7.7842307 -0.1512121
-0.42444256 -0.87652993 -0.15424834
-0.54854423 -1.1328163 -0.15454128
-0.76825678 -1.5865517 -0.15422232
-1.2744623 -2.6319332 -0.15325402
-3.7771823 -7.8003807 -0.15127896
-0.42019388 -0.87522477 -0.15376988
-0.54337913 -1.1318083 -0.15415435
-0.76275808 -1.5887542 -0.15418695
-1.2621213 -2.6288815 -0.15282905
-3.7514617 -7.8139458 -0.15129726
-0.42494759 -0.89278603 -0.15660404
-0.53915828 -1.1327349 -0.15403348
-0.7600705 -1.5968565 -0.15472509
-1.2547297 -2.636102 -0.15300339
-3.7196872 -7.8148103 -0.15107165
-0.40919986 -0.86718154 -0.15187123
-0.53682858 -1.1376539 -0.15445676
-0.74838108 -1.5859787 -0.15342712
-1.2461467 -2.6408498 -0.1530356
-3.7018898 -7.8450923 -0.15141626
-0.40973783 -0.8759191 -0.15316001
-0.53310758 -1.1396534 -0.15448469
-0.74708158 -1.5970775 -0.15425763
-1.2377504 -2.6460073 -0.15309311
-3.6741545 -7.8544426 -0.15135811
-0.40122187 -0.86526108 -0.15106031
-0.52678645 -1.1360493 -0.15375586
-0.743393 -1.6031754 -0.154605
-1.2308592 -2.6544278 -0.15334068
-3.6465485 -7.8640194 -0.15130621
-0.40630451 -0.8839761 -0.15408896
-0.51977652 -1.1308514 -0.15281563
-0.73422307 -1.5974119 -0.15381092
-1.2191672 -2.6524804 -0.15299118
-3.6171286 -7.8696032 -0.15117946
-0.4040643 -0.88692671 -0.15436625
-0.52311599 -1.1482468 -0.15492843
-0.72695267 -1.5956712 -0.15340775
-1.2160873 -2.6693285 -0.15372692
-3.5883946 -7.8765759 -0.15108143
-0.40132055 -0.88879073 -0.15445563
-0.51578349 -1.1422879 -0.15389022
-0.72531188 -1.6063231 -0.15419717
-1.2008464 -2.6594732 -0.15292662
-3.5585637 -7.8810282 -0.15093713
-0.39986145 -0.8935349 -0.15504622
-0.51588768 -1.1528084 -0.15507367
-0.72050041 -1.6100383 -0.15432104
-1.1953785 -2.671206 -0.15336998
-3.5370388 -7.9039063 -0.15114732
-0.39283338 -0.88578349 -0.1534718
-0.50864094 -1.1469132 -0.15405038
-0.71356457 -1.6089869 -0.15399009
-1.1839767 -2.6696992 -0.15305467
-3.5082524 -7.9106112 -0.15104975
-0.38628957 -0.87896842 -0.15206575
-0.50566792 -1.1506035 -0.15431747
-0.70727772 -1.6093491 -0.15379694
-1.1719652 -2.6667054 -0.1526569
-3.4799337 -7.9182878 -0.15097268
-0.38780814 -0.89051789 -0.15383805
-0.50179803 -1.1522712 -0.15431462
-0.70067179 -1.6089419 -0.15353265
-1.1724794 -2.6923463 -0.15389882
-3.4571321 -7.9385591 -0.15113734
-0.38328913 -0.88826483 -0.15322597
-0.49644881 -1.1505102 -0.153855
-0.69824004 -1.6181573 -0.15418777
-1.1581314 -2.6839461 -0.15319583
-3.4270883 -7.9422078 -0.15098719
-0.38253957 -0.89476275 -0.15412475
-0.48266345 -1.1289532 -0.15075499
-0.68885005 -1.6112251 -0.15330629
-1.1482455 -2.6857543 -0.15307844
-3.4009142 -7.9547625 -0.15100825
-0.37792489 -0.89223325 -0.15346991
-0.48497248 -1.1449592 -0.15267435
-0.68550748 -1.6183972 -0.15376915
-1.1402268 -2.6919327 -0.15321182
-3.374366 -7.966455 -0.1510146
-0.37800553 -0.90082163 -0.15472829
-0.486348 -1.1590116 -0.15432987
-0.67962021 -1.6195967 -0.15366577
-1.1281871 -2.6885726 -0.15280443
-3.3450644 -7.9715934 -0.15089855
-0.37284452 -0.89693916 -0.15384585
-0.48493439 -1.1665899 -0.15512159
-0.67391396 -1.6212115 -0.15360373
-1.1253463 -2.7072065 -0.15364818
-3.322423 -7.9926381 -0.1510852
-0.36734834 -0.89214468 -0.15281136
-0.47740644 -1.1594325 -0.15395617
-0.66187263 -1.6074283 -0.1520867
-1.1180283 -2.7152512 -0.15389115
-3.2947154 -8.0015678 -0.15104434
-0.37069401 -0.90891391 -0.15546992
-0.47529736 -1.1653935 -0.15453523
-0.66304368 -1.6257334 -0.15360744
-1.1061275 -2.7121415 -0.15350385
-3.2661326 -8.0083122 -0.15096408
-0.36153203 -0.89501947 -0.15288508
-0.46590164 -1.1533999 -0.15273684
-0.65553355 -1.6228584 -0.15312727
-1.0963973 -2.7142737 -0.15341561
-3.2426469 -8.0275927 -0.15112174
-0.36377677 -0.90934414 -0.15512277
-0.46693683 -1.1672165 -0.1543583
-0.64939064 -1.623302 -0.15296282
-1.0847076 -2.7114775 -0.15305114
-3.2130954 -8.0318747 -0.1509987
-0.34912589 -0.88127756 -0.15013444
-0.45826173 -1.1567626 -0.15277177
-0.64290577 -1.6228485 -0.15271612
-1.0728217 -2.7080595 -0.15265432
-3.1833129 -8.0354462 -0.15086433
-0.35321292 -0.90039891 -0.15318935
-0.45016322 -1.1475414 -0.15135376
-0.64031231 -1.6322634 -0.1533992
-1.0660352 -2.7175021 -0.15298425
-3.1605763 -8.056838 -0.15106617
-0.35275728 -0.90818226 -0.15431146
-0.4466742 -1.1499736 -0.15147617
-0.63613826 -1.6377536 -0.15371387
-1.0641043 -2.7395625 -0.15402445
-3.1294045 -8.0567284 -0.15086654
-0.34264117 -0.8909778 -0.15119217
-0.44189319 -1.1490651 -0.15116049
-0.62824917 -1.6336509 -0.15313023
-1.0473893 -2.7235508 -0.15292594
-3.1055014 -8.0753069 -0.15101859
-0.34653085 -0.91018951 -0.15425423
-0.44751811 -1.1754402 -0.15443191
-0.62160027 -1.6326802 -0.15284303
-1.0385749 -2.7278955 -0.1529735
-3.0778749 -8.0842714 -0.15099239
-0.34349751 -0.91140008 -0.15426335
-0.43616381 -1.1572711 -0.15185183
-0.61916637 -1.6428307 -0.15359807
-1.0270797 -2.7251451 -0.15262531
-3.0531881 -8.1010075 -0.15111294
-0.34212154 -0.91705453 -0.15502538
-0.44077229 -1.1814872 -0.15483457
-0.61387527 -1.6454885 -0.15365325
-1.019161 -2.7318542 -0.15280882
-3.0213559 -8.0987234 -0.15088053
-0.33472911 -0.90650845 -0.15305202
-0.43004301 -1.1646361 -0.15243641
-0.60993606 -1.6518198 -0.15405264
-1.0169572 -2.7541084 -0.15386203
-2.9911091 -8.1004772 -0.15072551
-0.33024934 -0.90368921 -0.15238823
-0.42698315 -1.1683902 -0.15273952
-0.60135257 -1.645532 -0.15327732
-1.0002147 -2.7369721 -0.15271649
-2.9688663 -8.1239605 -0.15097639
-0.33454037 -0.92503971 -0.15579851
-0.4247371 -1.1744432 -0.1533438
-0.59272903 -1.6389588 -0.15247908
-0.99229646 -2.7438052 -0.15291126
-2.9372249 -8.1217384 -0.15075125
-0.33015069 -0.92256171 -0.15519387
-0.41969743 -1.172788 -0.1529431
-0.5884344 -1.6443008 -0.15279166
-0.98387384 -2.7493031 -0.15303296
-2.9135232 -8.141449 -0.15093493
-0.32705685 -0.92366683 -0.15519443
-0.41946092 -1.1846323 -0.15430343
-0.58158857 -1.6425097 -0.15244319
-0.98027164 -2.7684617 -0.15391557
-2.8874314 -8.1546202 -0.1509988
-0.3214699 -0.91765541 -0.15400241
-0.41369113 -1.1809065 -0.1536366
-0.58167988 -1.6604406 -0.15392549
-0.96200687 -2.7461071 -0.15249255
-2.8580787 -8.1585598 -0.15089345
-0.3248696 -0.9374212 -0.15713587
-0.41142213 -1.1871712 -0.1542713
-0.57241946 -1.6517339 -0.15293959
-0.95588851 -2.7582455 -0.15298778
-2.8356764 -8.1824312 -0.15115826
-0.31460494 -0.91773582 -0.1536584
-0.40536293 -1.1824864 -0.15348506
-0.56762445 -1.6558205 -0.1531409
-0.94665188 -2.7614834 -0.15299046
-2.804853 -8.1820526 -0.15097669
-0.31446919 -0.92746532 -0.15511005
-0.40177482 -1.1849562 -0.15362991
-0.56338423 -1.6615915 -0.15349908
-0.93779159 -2.7658327 -0.15305635
-2.7800162 -8.1991129 -0.15111865
-0.30803162 -0.91859525 -0.15345301
-0.39651406 -1.1824628 -0.15313342
-0.55753386 -1.6626474 -0.15342307
-0.93307757 -2.7825737 -0.15380879
-2.7463062 -8.1898861 -0.15077803
-0.31199828 -0.94087797 -0.15699975
-0.39613697 -1.194611 -0.15453377
-0.55405194 -1.6708275 -0.15400562
-0.9207238 -2.7765818 -0.15330608
-2.7171929 -8.1941061 -0.15068714
-0.30191883 -0.92080444 -0.15348041
-0.39172813 -1.1947085 -0.15437563
-0.54474664 -1.6613907 -0.15296657
-0.91177583 -2.7807713 -0.15336774
-2.6949952 -8.219306 -0.15098356
-0.29981363 -0.92484623 -0.15398568
-0.38834628 -1.1979462 -0.15462486
-0.54148191 -1.6703293 -0.15362157
-0.89943451 -2.774519 -0.15285574
-2.6673384 -8.2280369 -0.15097882
-0.29628921 -0.92452973 -0.15376672
-0.3808043 -1.1882476 -0.15320736
-0.53563291 -1.6713688 -0.15355113
-0.89429462 -2.7905233 -0.15357141
-2.6350415 -8.2222843 -0.1507103
-0.29155558 -0.92036557 -0.15291069
-0.37736115 -1.1912315 -0.15342811
-0.52704453 -1.6637431 -0.15268736
-0.88237363 -2.7854252 -0.15312716
-2.6114135 -8.243557 -0.15093887
-0.28818923 -0.92044711 -0.15276285
-0.37144539 -1.1863589 -0.15263925
-0.52552557 -1.6784754 -0.1538768
-0.87064058 -2.7807374 -0.15270813
-2.5848498 -8.2557478 -0.15100256
-0.28478882 -0.92039764 -0.15259531
-0.36818072 -1.1899085 -0.15293628
-0.51411635 -1.6615521 -0.15216646
-0.86119634 -2.7832658 -0.15268755
-2.5576329 -8.2659111 -0.15103076
-0.28739277 -0.93996209 -0.15567832
-0.36859444 -1.2055446 -0.15478623
-0.51287836 -1.6774472 -0.1534638
-0.85180658 -2.785964 -0.15267803
-2.5265536 -8.2634811 -0.15083072
-0.28343645 -0.93826157 -0.15523842
-0.36542609 -1.2096723 -0.15515804
-0.50861287 -1.6836646 -0.15387574
-0.84336162 -2.7917855 -0.15284126
-2.4967575 -8.2650328 -0.1507054
-0.27990046 -0.93790454 -0.1550232
-0.35668522 -1.1951988 -0.15314734
-0.50045484 -1.6769491 -0.15310776
-0.8360942 -2.8016264 -0.15322568
-2.4715025 -8.2816353 -0.15085618
-0.27849936 -0.94475758 -0.1560007
-0.35134408 -1.1918699 -0.15256898
-0.49833682 -1.6905156 -0.15419298
-0.82637519 -2.8033252 -0.15316617
-2.4455609 -8.296113 -0.1509697
-0.26673985 -0.91618043 -0.15113345
-0.3541249 -1.2163248 -0.15554656
-0.48790967 -1.67584 -0.15270434
-0.81614411 -2.8032382 -0.15301105
-2.4152746 -8.2958269 -0.15081628
-0.26681536 -0.92802155 -0.15293834
-0.34827992 -1.2113669 -0.15476233
-0.48588195 -1.6899662 -0.15384224
-0.80370992 -2.7954168 -0.15243621
-2.3902578 -8.3136549 -0.15099384
-0.26500142 -0.93348688 -0.15369172
-0.34293535 -1.208015 -0.15418632
-0.47860748 -1.6859299 -0.15332787
-0.79779345 -2.810286 -0.1531003
-2.3581405 -8.3067226 -0.1507235
-0.26284605 -0.93785232 -0.15426451
-0.33650044 -1.2006561 -0.1531022
-0.47441879 -1.6927581 -0.15380332
-0.78791314 -2.811327 -0.15301223
-2.332588 -8.3228302 -0.15087301
-0.25893673 -0.93596894 -0.15381105
-0.33560029 -1.2130818 -0.15454233
-0.4694351 -1.6968495 -0.1540312
-0.77397114 -2.7976444 -0.15212545
-2.3046019 -8.3303585 -0.15086856
-0.25408927 -0.93057686 -0.15278409
-0.33064798 -1.2109655 -0.15413062
-0.4615472 -1.690371 -0.15330179
-0.7713151 -2.8248653 -0.15346414
-2.2763858 -8.337038 -0.15085046
-0.25616926 -0.95072788 -0.15595064
-0.32826966 -1.218316 -0.15492523
-0.45577642 -1.6915354 -0.15326792
-0.76120305 -2.8250735 -0.15333593
-2.2473445 -8.3406296 -0.15077826
-0.24906383 -0.93685007 -0.15353638
-0.32105815 -1.2076557 -0.15343186
-0.4520117 -1.7002356 -0.15391806
-0.75165552 -2.8273416 -0.15332139
-2.2196546 -8.3491993 -0.1507978
-0.2503663 -0.95462817 -0.1563115
-0.31635305 -1.2062308 -0.15311521
-0.44451728 -1.6949115 -0.1533003
-0.74203432 -2.8293216 -0.15329298
-2.1909888 -8.3540773 -0.15075238
-0.24127689 -0.93270361 -0.15258825
-0.31148279 -1.2040983 -0.15271111
-0.43758425 -1.6915686 -0.15286438
-0.73225313 -2.8306696 -0.15323213
-2.1626365 -8.3600998 -0.15072936
-0.23964952 -0.93939161 -0.15355007
-0.30917639 -1.2119269 -0.15357165
-0.43361273 -1.6996995 -0.15346693
-0.71872711 -2.817307 -0.15237747
-2.1363077 -8.3740187 -0.15085033
-0.23595503 -0.93802905 -0.15319718
-0.30478406 -1.2116559 -0.15340695
-0.43052223 -1.7115226 -0.15440324
-0.71400809 -2.8385084 -0.15339383
-2.1075501 -8.3784752 -0.15080245
-0.23579635 -0.95086282 -0.15516318
-0.29952517 -1.2078532 -0.15279748
-0.42304602 -1.7059584 -0.15377244
-0.70280546 -2.8341053 -0.15302768
-2.0788558 -8.38311 -0.15075958
-0.22901618 -0.93695748 -0.15276793
-0.29469246 -1.205654 -0.15239343
-0.41469759 -1.6966224 -0.15280472
-0.69615304 -2.8481209 -0.15365757
-2.054997 -8.4074612 -0.15107276
-0.22757757 -0.94479471 -0.15392049
-0.29338354 -1.21799 -0.15382749
-0.40907693 -1.6982945 -0.15283093
-0.68340594 -2.8371789 -0.15294278
-2.0204599 -8.3879967 -0.15060042
-0.22293745 -0.93935376 -0.15291145
-0.29045713 -1.22385 -0.15444373
-0.39979541 -1.6845503 -0.1514726
-0.67763096 -2.8552189 -0.1537919
-1.9957544 -8.4091721 -0.15085962
-0.22115618 -0.94595361 -0.15386422
-0.28633001 -1.2247223 -0.15443179
-0.4002744 -1.7120978 -0.15382808
-0.66625589 -2.8497832 -0.15337794
-1.9636743 -8.3992443 -0.15056255
-0.21858402 -0.9492985 -0.1542882
-0.2786352 -1.2100974 -0.15246901
-0.39436889 -1.7127227 -0.15376456
-0.65187019 -2.8310368 -0.1522505
-1.9361217 -8.4084711 -0.15061074
-0.21503314 -0.94840813 -0.15402547
-0.27441332 -1.2103057 -0.15237845
-0.38820353 -1.7121798 -0.15359811
-0.64396656 -2.8402278 -0.15262781
-1.9108534 -8.4278584 -0.1508424
-0.21329008 -0.95556611 -0.15507093
-0.27482685 -1.2312585 -0.15489955
-0.38333914 -1.7174071 -0.15395088
-0.63555324 -2.8473575 -0.15289558
-1.882206 -8.4325171 -0.15081199
-0.2076133 -0.94502485 -0.15324646
-0.26765731 -1.2183362 -0.1531601
-0.37681928 -1.7152252 -0.15364118
-0.62675309 -2.8528869 -0.15307878
-1.8544257 -8.4410696 -0.15085289
-0.20612328 -0.95348525 -0.15450546
-0.26687992 -1.2345333 -0.15508291
-0.36913601 -1.7075497 -0.15284193
-0.6182043 -2.8596902 -0.15333176
-1.8235714 -8.4354782 -0.15064286
-0.20238157 -0.95161444 -0.15409149
-0.2595014 -1.2201966 -0.15317176
-0.36263573 -1.7051426 -0.15251678
-0.60910708 -2.8640707 -0.15345627
-1.7960542 -8.4451923 -0.15070795
-0.19799004 -0.94655168 -0.15316336
-0.2597568 -1.2418466 -0.15577929
-0.36207536 -1.7310115 -0.15472117
-0.59684253 -2.8533874 -0.15277578
-1.7699962 -8.4620056 -0.15090124
-0.19629709 -0.95441467 -0.15432832
-0.25500005 -1.239834 -0.15541869
-0.35488245 -1.7254713 -0.15411876
-0.5871498 -2.8547769 -0.15274392
-1.7383577 -8.4520559 -0.15061903
-0.19185543 -0.94893146 -0.15333679
-0.24953322 -1.2342101 -0.15460798
-0.34400007 -1.7014503 -0.15186934
-0.57619429 -2.8499005 -0.15237878
-1.7098194 -8.4568958 -0.15060227
-0.18869379 -0.9496752 -0.15335388
-0.24461007 -1.2310957 -0.15411423
-0.34111488 -1.7167938 -0.15313593
-0.56595206 -2.8483746 -0.15219489
-1.6806201 -8.4583769 -0.15052745
-0.18724224 -0.9591831 -0.15478699
-0.24044777 -1.2317383 -0.15409291
-0.33353734 -1.708607 -0.15230507
-0.55812705 -2.8591092 -0.15266761
-1.6538595 -8.4722023 -0.15067396
-0.18269457 -0.9528653 -0.15366773
-0.23422976 -1.2216532 -0.15273213
-0.32952046 -1.7186533 -0.15310125
-0.55147076 -2.8762615 -0.1534839
-1.6257762 -8.4794302 -0.15070471
-0.18126881 -0.96287471 -0.15518306
-0.23250131 -1.2350147 -0.15430427
-0.32464084 -1.724447 -0.15351954
-0.54043382 -2.8707092 -0.15309006
-1.597821 -8.4874029 -0.15075035
-0.17402354 -0.94174457 -0.1516827
-0.22674321 -1.227042 -0.15321229
-0.32032529 -1.7334701 -0.15422635
-0.53234446 -2.8808317 -0.15353383
-1.5680268 -8.4855232 -0.15062274
-0.17247851 -0.95122087 -0.15311502
-0.2269724 -1.2517554 -0.15620218
-0.31328464 -1.7277683 -0.15362474
-0.51951241 -2.8651168 -0.15260261
-1.540199 -8.494215 -0.15068451
-0.16770464 -0.94289011 -0.15168267
-0.21831691 -1.2274488 -0.15307686
-0.30595759 -1.7201931 -0.15285914
-0.51036602 -2.8694441 -0.1527411
-1.5107847 -8.4941244 -0.15059219
-0.16583784 -0.95087504 -0.1528769
-0.21270327 -1.2195903 -0.15200703
-0.29996124 -1.719907 -0.15274347
-0.50136948 -2.8747344 -0.15293236
-1.482808 -8.5020714 -0.15064411
-0.16662002 -0.97465563 -0.15660954
-0.21110834 -1.2348932 -0.15382525
-0.29551506 -1.7286364 -0.15342987
-0.49124512 -2.8735733 -0.15278211
-1.454708 -8.5094175 -0.15068699
-0.16088678 -0.96049595 -0.15424678
-0.20749408 -1.238742 -0.15421715
-0.29005089 -1.7316072 -0.15360637
-0.48223549 -2.8789513 -0.15298124
-1.4256746 -8.5112934 -0.15063472
-0.15669209 -0.9550966 -0.15329446
-0.20282914 -1.2363189 -0.15382998
-0.28282762 -1.7239395 -0.15284121
-0.47185501 -2.8761318 -0.15274647
-1.3942791 -8.4986506 -0.15032738
-0.15431383 -0.96075219 -0.15411828
-0.19947095 -1.2418989 -0.15444016
-0.27599838 -1.7183557 -0.15226327
-0.46510684 -2.8957381 -0.15370405
-1.3678769 -8.5163517 -0.15055852
-0.15010311 -0.95497435 -0.15310985
-0.19543941 -1.2434095 -0.15454568
-0.27323741 -1.7383699 -0.15395468
-0.45249078 -2.8788018 -0.1527237
-1.3423079 -8.5399275 -0.1508949
-0.14837688 -0.96507555 -0.15464874
-0.18947457 -1.2323838 -0.15309545
-0.26625532 -1.7317826 -0.15329136
-0.4437834 -2.8864639 -0.15305039
-1.3130603 -8.5404301 -0.15082516
-0.14400756 -0.95803165 -0.15344174
-0.18778925 -1.2492958 -0.15511729
-0.25916493 -1.7241331 -0.15253648
-0.43397769 -2.8871012 -0.15300617
-1.2815058 -8.5254078 -0.15048313
-0.1408319 -0.95876271 -0.15348235
-0.18123586 -1.2338269 -0.15312031
-0.25336969 -1.7249033 -0.15252861
-0.42346546 -2.88289 -0.15270689
-1.2506742 -8.5144053 -0.15021406
-0.13778347 -0.96039289 -0.15366849
-0.17883603 -1.2465419 -0.15462297
-0.24931376 -1.7377931 -0.15359364
-0.41385603 -2.8847032 -0.15272857
-1.2259486 -8.5452366 -0.15068462
-0.13495636 -0.9636606 -0.15411808
-0.17203127 -1.2283952 -0.15229964
-0.2409631 -1.7206054 -0.15200226
-0.40416709 -2.8859692 -0.152723
-1.1963379 -8.5424929 -0.15056467
-0.13128164 -0.96086538 -0.15359978
-0.16915552 -1.2380686 -0.15342779
-0.23894712 -1.7488813 -0.15442859
-0.39331725 -2.8787341 -0.15226948
-1.1678195 -8.5474043 -0.15058137
-0.12857887 -0.96520036 -0.15422298
-0.16331142 -1.2259265 -0.15185437
-0.23091501 -1.7334049 -0.15299277
-0.38401186 -2.882654 -0.15240785
-1.1395463 -8.5542088 -0.1506331
-0.12543945 -0.96637666 -0.15434286
-0.16217795 -1.2494075 -0.15469472
-0.22477941 -1.7316847 -0.15277356
-0.37467384 -2.886461 -0.15254186
-1.1103441 -8.5540123 -0.15056324
-0.12188144 -0.96428204 -0.15394218
-0.15499833 -1.2262909 -0.15176734
-0.21932694 -1.7352357 -0.15302111
-0.36609122 -2.8963819 -0.15300043
-1.0823497 -8.5631599 -0.15065953
-0.12066589 -0.98109454 -0.15656073
-0.15322384 -1.2458125 -0.15411891
-0.21337715 -1.7348992 -0.15292747
-0.35735178 -2.9055095 -0.15341844
-1.0529714 -8.5613632 -0.15056495
-0.11642254 -0.97352254 -0.15528926
-0.14766054 -1.2347339 -0.15268628
-0.20840302 -1.7426611 -0.15354922
-0.34503242 -2.8851531 -0.15228163
-1.0251173 -8.5720062 -0.15069084
-0.10966271 -0.94382602 -0.15049279
-0.14452657 -1.2438862 -0.15375727
-0.20019011 -1.7229617 -0.15175347
-0.33632532 -2.8946266 -0.15272127
-0.99437708 -8.5582323 -0.15038925
-0.10867242 -0.96346974 -0.15356602
-0.13907668 -1.2330284 -0.15235662
-0.19768064 -1.7526003 -0.15430471
-0.32782641 -2.9064488 -0.15328617
-0.96660787 -8.569768 -0.15053417
-0.10660654 -0.97447848 -0.15526283
-0.13469033 -1.2311891 -0.15207271
-0.19064018 -1.7426206 -0.15336892
-0.3180722 -2.9074624 -0.15328251
-0.93816459 -8.5756569 -0.15058151
-0.10415096 -0.98249274 -0.15648322
-0.13248871 -1.2498127 -0.1543173
-0.18500876 -1.745253 -0.15354514
-0.30665439 -2.8927789 -0.15245333
-0.90844375 -8.5696697 -0.15042205
-0.10008728 -0.97534269 -0.15529011
-0.12746465 -1.2421331 -0.15331545
-0.17909572 -1.7452737 -0.15349329
-0.29916406 -2.9153304 -0.1535881
-0.88103455 -8.5856133 -0.15064919
-0.096432067 -0.97179788 -0.15467337
-0.12318975 -1.2414496 -0.15317924
-0.17358004 -1.7492595 -0.15379177
-0.28807491 -2.9030862 -0.15289129
-0.85259819 -8.5920916 -0.15071186
-0.09335462 -0.9740079 -0.15497443
-0.11942557 -1.2460171 -0.15369254
-0.16816209 -1.7545056 -0.15420257
-0.27831367 -2.9037633 -0.15287696
-0.8219924 -8.5761909 -0.15038377
-0.089285769 -0.96563452 -0.15359364
-0.11562743 -1.2505223 -0.15419956
-0.16095799 -1.7407768 -0.15294765
-0.27022791 -2.9225419 -0.15381704
-0.79477584 -8.5955801 -0.15067619
-0.086661443 -0.97281826 -0.15468921
-0.11013553 -1.2363267 -0.15240274
-0.15632932 -1.7548752 -0.15413944
-0.25834438 -2.9000454 -0.15258658
-0.76572418 -8.5956392 -0.15063137
-0.082737505 -0.96538186 -0.15346175
-0.10713015 -1.2499955 -0.15404256
-0.14987767 -1.7487737 -0.15355852
-0.24949063 -2.9110584 -0.15312116
-0.73620766 -8.5900764 -0.15048979
-0.079308152 -0.96331984 -0.15309083
-0.10314855 -1.2528982 -0.15435679
-0.14262955 -1.732456 -0.15208283
-0.23936316 -2.9074349 -0.15288749
-0.70816368 -8.6017408 -0.15065169
-0.076530039 -0.9693073 -0.15400073
-0.09820579 -1.2438461 -0.15320013
-0.13808136 -1.7488984 -0.15348472
-0.23003465 -2.913552 -0.15316775
-0.67909992 -8.6012831 -0.15060295
-0.073339939 -0.97035539 -0.1541273
-0.094588883 -1.2514987 -0.15410276
-0.13081625 -1.7308204 -0.15185882
-0.22030579 -2.91485 -0.15319628
-0.65060866 -8.6081562 -0.15068425
-0.070667133 -0.97864228 -0.15540506
-0.090857647 -1.258253 -0.15489607
-0.12606916 -1.7458837 -0.15314251
-0.20953318 -2.9017453 -0.15246975
-0.6214751 -8.6065722 -0.15061921
-0.0669806 -0.97299141 -0.15447119
-0.086320557 -1.2539327 -0.15432772
-0.1206038 -1.751947 -0.15363804
-0.19939817 -2.8965509 -0.15216084
-0.59305036 -8.6149263 -0.15072976
-0.063583836 -0.97116184 -0.15414602
-0.081839509 -1.2499939 -0.15380833
-0.11577793 -1.76836 -0.15504245
-0.19078416 -2.9139843 -0.15304218
-0.56346095 -8.6061459 -0.15054223
-0.060206383 -0.96942168 -0.15383691
-0.077568173 -1.2489752 -0.1536501
-0.1088709 -1.7530005 -0.15366293
-0.18057127 -2.9074941 -0.15266867
-0.53371495 -8.593688 -0.15029217
-0.056443032 -0.96088946 -0.15245205
-0.073193662 -1.2460531 -0.15325958
-0.10238227 -1.7429616 -0.15275201
-0.17070563 -2.9061027 -0.15256469
-0.50551844 -8.6059761 -0.15047657
-0.053223234 -0.96111304 -0.15245835
-0.069015674 -1.2462952 -0.15326004
-0.097559683 -1.7617472 -0.15436883
-0.1614951 -2.9163027 -0.15307088
-0.47648773 -8.6044855 -0.15042174
-0.050221905 -0.96554267 -0.15313344
-0.064764045 -1.245123 -0.15308832
-0.091272078 -1.7547539 -0.15372838
-0.15121922 -2.9072692 -0.15256926
-0.44750679 -8.6035547 -0.15037839
-0.04752703 -0.97685993 -0.15490219
-0.061774563 -1.2697005 -0.15608379
-0.084733427 -1.7415918 -0.15254954
-0.14211483 -2.9209964 -0.15326378
-0.41897449 -8.6115074 -0.150492
-0.043780413 -0.96661204 -0.15325302
-0.05610346 -1.2386881 -0.15224747
-0.07873024 -1.7382567 -0.15223344
-0.13212611 -2.917165 -0.15303864
-0.38973677 -8.6048584 -0.15035212
-0.040954355 -0.97665137 -0.15482208
-0.052835505 -1.2599849 -0.15484241
-0.073651552 -1.7563916 -0.15379918
-0.12260077 -2.9236991 -0.15335901
-0.3611317 -8.6120205 -0.15045527
-0.037466157 -0.97125006 -0.15394507
-0.048242122 -1.2505997 -0.15366831
-0.067459606 -1.7487823 -0.15311219
-0.11198487 -2.9030282 -0.15225419
-0.33203766 -8.6075439 -0.15035675
-0.034659822 -0.98415619 -0.15597142
-0.04356366 -1.2369783 -0.15197577
-0.061677855 -1.7513258 -0.15331592
-0.10272869 -2.9169531 -0.15296558
-0.30330241 -8.6121893 -0.15041929
-0.030645166 -0.96183294 -0.15241645
-0.039547626 -1.2412467 -0.15248305
-0.055934109 -1.7555548 -0.15366885
-0.092905805 -2.9159532 -0.15289594
-0.27491266 -8.6284428 -0.15068622
-0.027904032 -0.97890544 -0.15510613
-0.035580158 -1.2481928 -0.15332083
-0.049858015 -1.7490764 -0.15308629
-0.083294071 -2.9220514 -0.15320021
-0.24617834 -8.636219 -0.15080677
-0.024440078 -0.97176844 -0.15396143
-0.031362724 -1.2470216 -0.15316318
-0.043869399 -1.7443027 -0.15265475
-0.0731901 -2.910131 -0.1525615
-0.21682572 -8.6212654 -0.1505321
-0.02117127 -0.97136247 -0.15388501
-0.027327206 -1.253804 -0.1539841
-0.038288034 -1.7566996 -0.15372756
-0.063511387 -2.9139762 -0.15275107
-0.18781947 -8.6173754 -0.15045235
-0.018066069 -0.97965485 -0.15518823
-0.023118911 -1.2536514 -0.15395498
-0.032198865 -1.7460231 -0.15278298
-0.053872675 -2.9213121 -0.15312529
-0.15900536 -8.622261 -0.15052749
-0.014775079 -0.97929293 -0.15512218
-0.019146597 -1.2690374 -0.1558357
-0.026376685 -1.748248 -0.15296906
-0.043877825 -2.9082243 -0.1524307
-0.13024153 -8.6324139 -0.15069628
-0.011530232 -0.98262829 -0.15564351
-0.014534276 -1.2386386 -0.15209594
-0.020709833 -1.7649313 -0.15442188
-0.034098145 -2.9059088 -0.15230249
-0.10126926 -8.6303587 -0.15065362
-0.0081152506 -0.96830148 -0.15336904
-0.010613562 -1.2663968 -0.1554992
-0.014659612 -1.7491665 -0.15303738
-0.024414893 -2.9131544 -0.15267707
-0.072189979 -8.6136179 -0.15035631
-0.0048627811 -0.9671514 -0.15318345
-0.006249052 -1.2428648 -0.15260631
-0.0088165542 -1.7535117 -0.1534141
-0.01472864 -2.9293578 -0.15352285
-0.043321397 -8.6161299 -0.15039678
-0.001642103 -0.98031104 -0.155266
-0.0020733438 -1.2377555 -0.15197726
-0.0029213189 -1.7439841 -0.15257882
-0.0048857001 -2.9166903 -0.15285726
-0.014444202 -8.6229744 -0.15051457
0.0016329626 -0.97331256 -0.15415755
0.0021068696 -1.2557805 -0.15419044
0.0029232057 -1.7423503 -0.15243588
0.0049061719 -2.9242792 -0.15325497
0.014478639 -8.6298609 -0.15063478
0.0048885122 -0.97175622 -0.15391278
0.006309852 -1.2542952 -0.1540098
0.0087610418 -1.7415518 -0.15236774
0.014588048 -2.8998649 -0.15197718
0.043359324 -8.6191244 -0.15044905
0.0081276521 -0.9694742 -0.1535548
0.010540174 -1.2572422 -0.15437514
0.0148113 -1.7667062 -0.15457197
0.024491722 -2.9213963 -0.15310904
0.072211765 -8.6134901 -0.15035409
0.011333878 -0.96567625 -0.15295839
0.014591939 -1.2432716 -0.15266484
0.020595761 -1.7548131 -0.15353659
0.034325574 -2.924629 -0.15328364
0.10106882 -8.6113291 -0.15032144
0.014680045 -0.97282296 -0.15409733
0.018857777 -1.2496746 -0.15345798
0.026373891 -1.7477553 -0.15292595
0.044196844 -2.9288538 -0.15351197
0.12998717 -8.6140394 -0.15037552
0.017996615 -0.97574812 -0.15456937
0.023041051 -1.2492496 -0.15341441
0.032309562 -1.7517736 -0.15328617
0.053548571 -2.9033194 -0.15218216
0.15911154 -8.6267776 -0.15060635
0.021108991 -0.96838707 -0.15341365
0.027051641 -1.2410096 -0.15241279
0.038249332 -1.7547101 -0.15355349
0.06381844 -2.9277077 -0.15347089
0.18794119 -8.6219101 -0.15053153
0.024258005 -0.96442711 -0.15279832
0.031479705 -1.2515408 -0.15371825
0.043897144 -1.7452217 -0.15273519
0.073066592 -2.9049134 -0.15228799
0.21654049 -8.6090155 -0.15031822
0.027763464 -0.97388345 -0.15431042
0.035558332 -1.2473109 -0.15321252
0.0499424 -1.7518735 -0.15333112
0.083060503 -2.9135864 -0.15275639
0.24570009 -8.618638 -0.15049979
0.030735329 -0.96458238 -0.15285215
0.040100496 -1.2584943 -0.15460186
0.05636134 -1.7688165 -0.1548297
0.092658818 -2.9079585 -0.15247677
0.27431083 -8.6088362 -0.15034384
0.034058999 -0.96702302 -0.15325613
0.044436451 -1.2616657 -0.1550089
0.061610777 -1.7492893 -0.15313764
0.10281135 -2.91908 -0.15307713
0.30346325 -8.616106 -0.15048772
0.036903013 -0.95658553 -0.15162073
0.047807056 -1.2392359 -0.15227199
0.067945257 -1.7612505 -0.15420383
0.11227421 -2.9103286 -0.15263708
0.33190122 -8.6034145 -0.15028465
0.040551715 -0.96698815 -0.15329026
0.051970597 -1.2392806 -0.15229803
0.07367678 -1.7568818 -0.15384212
0.12195241 -2.9080532 -0.15253833
0.36139265 -8.6176977 -0.15055446
0.043473057 -0.95976967 -0.15216821
0.056237448 -1.2415736 -0.15260214
0.079565503 -1.7565951 -0.1538395
0.13167563 -2.9070482 -0.15250793
0.38983521 -8.6065264 -0.15038128
0.047316425 -0.97247797 -0.15420736
0.06084048 -1.2504332 -0.1537153
0.085210517 -1.7513021 -0.15340011
0.14151166 -2.9084401 -0.15260497
0.41860193 -8.6033802 -0.15034999
0.05034826 -0.96792233 -0.15351087
0.065294445 -1.2552559 -0.15433419
0.091106489 -1.7514807 -0.15344165
0.1512689 -2.9080758 -0.15261161
0.44742677 -8.6015759 -0.15034382
0.053693622 -0.96956074 -0.1537984
0.0694298 -1.2537133 -0.15417227
0.097652055 -1.7633306 -0.15450759
0.16065378 -2.9009705 -0.15226614
0.47646824 -8.6037207 -0.15040839
0.057017136 -0.97061908 -0.15399574
0.073750339 -1.2554731 -0.15441823
0.10300207 -1.7534338 -0.1536698
0.17022035 -2.8977096 -0.15212409
0.50578117 -8.6100578 -0.15054798
0.058842044 -0.94741297 -0.15034439
0.077438839 -1.2468392 -0.15338735
0.10860096 -1.7485789 -0.15327537
0.18089892 -2.9126449 -0.15293914
0.53402072 -8.5982428 -0.15037185
0.062798776 -0.95913208 -0.15223664
0.081898831 -1.2508491 -0.15391357
0.11411188 -1.7428422 -0.15280519
0.19094661 -2.9163468 -0.15316629
0.56314725 -8.6010046 -0.15045233
0.067037627 -0.97378212 -0.15459675
0.085857973 -1.2471647 -0.15349478
0.12011674 -1.7448043 -0.15301166
0.20041013 -2.9111383 -0.15292716
0.59088761 -8.5831766 -0.15017429
0.069859728 -0.96742505 -0.15362383
0.091464311 -1.2666076 -0.15592459
0.12620567 -1.7477099 -0.15330271
0.21071133 -2.9179533 -0.15332142
0.62040544 -8.5914412 -0.15035443
0.07389421 -0.9776544 -0.15528668
0.09407451 -1.2446491 -0.15325937
0.1316738 -1.742105 -0.15284894
0.21870092 -2.8935139 -0.15207495
0.64986724 -8.5980425 -0.15050724
0.076884493 -0.97376382 -0.15470879
0.098262519 -1.2445225 -0.15328349
0.13754916 -1.7420989 -0.15288801
0.22810504 -2.8890145 -0.15187782
0.67792279 -8.5860834 -0.15033685
0.079684317 -0.9678576 -0.15381201
0.10331309 -1.2548562 -0.15459804
0.14283849 -1.7349375 -0.15230072
0.23878959 -2.9003737 -0.15251622
0.70771843 -8.5960531 -0.15055211
0.083030172 -0.96876639 -0.15399982
0.10658263 -1.2435681 -0.15325052
0.14965716 -1.7461462 -0.15332784
0.24852714 -2.8997259 -0.1525251
0.73671776 -8.5957594 -0.15058939
0.08611124 -0.96661294 -0.15370251
0.11089195 -1.2447805 -0.15344489
0.15455553 -1.7349114 -0.15238596
0.25898686 -2.9071705 -0.15296151
0.76464057 -8.5832176 -0.15041372
0.089574926 -0.96873373 -0.15408663
0.11521845 -1.246063 -0.15364973
0.16135462 -1.7450157 -0.15332013
0.26800552 -2.8984225 -0.15254764
0.79362661 -8.5829029 -0.150454
0.092569247 -0.96578676 -0.15366639
0.11906015 -1.2421697 -0.15321803
0.16640157 -1.7360888 -0.15258396
0.2785145 -2.9057772 -0.15298302
0.82044053 -8.5597601 -0.1500957
0.096317716 -0.97061938 -0.15448584
0.12219024 -1.2313436 -0.15193234
0.17251804 -1.7385104 -0.15284677
0.28846005 -2.9068887 -0.15309159
0.8504675 -8.5703878 -0.15033121
0.099495471 -0.96955025 -0.15436789
0.12762314 -1.2436451 -0.15350212
0.17891024 -1.7434207 -0.15333036
0.29981783 -2.9216249 -0.15391976
0.87999797 -8.5752878 -0.15046805
0.10242241 -0.9661622 -0.15388228
0.13256904 -1.2505389 -0.15440701
0.18549043 -1.7497524 -0.15394105
0.30824378 -2.9076986 -0.15323967
0.90781409 -8.5635138 -0.15031403
0.10428809 -0.95326227 -0.15188251
0.13476285 -1.2318219 -0.15215091
0.19067243 -1.7428725 -0.15339114
0.31735396 -2.9008257 -0.15293267
0.93650436 -8.5602713 -0.15031138
0.10802514 -0.9577083 -0.15264775
0.14102295 -1.2502539 -0.15448511
0.19729207 -1.7491138 -0.15399779
0.32591784 -2.8894591 -0.15239017
0.96620458 -8.5659895 -0.15046783
0.11165824 -0.96097857 -0.15322781
0.1455532 -1.2526932 -0.15484594
0.20173348 -1.7362047 -0.15291993
0.33700222 -2.9003851 -0.15302515
0.99451345 -8.5592079 -0.15040644
0.11578728 -0.96818864 -0.15443848
0.14842705 -1.2411156 -0.15347549
0.20759371 -1.7358546 -0.15294953
0.34612265 -2.8942041 -0.1527594
1.0212076 -8.5391216 -0.15011279
0.11813194 -0.9604708 -0.15326971
0.1509172 -1.2270311 -0.15179552
0.21309303 -1.7325511 -0.15272054
0.35728607 -2.9049113 -0.15338691
1.0521452 -8.5544586 -0.15044357
0.12219939 -0.96677697 -0.15434054
0.15717326 -1.2434716 -0.15389371
0.21950698 -1.736623 -0.1531435
0.36641321 -2.8988674 -0.15313178
1.0817101 -8.5579176 -0.15056735
0.12515052 -0.96413076 -0.1539842
0.16165031 -1.2453167 -0.15418828
0.22627847 -1.7431971 -0.15378927
0.3760587 -2.8970695 -0.15310255
1.107895 -8.5349674 -0.15022807
0.12815386 -0.96199048 -0.15371014
0.16695252 -1.2532337 -0.15523693
0.23134063 -1.7365648 -0.15327172
0.38654503 -2.9016109 -0.15341017
1.1373885 -8.537837 -0.15034486
0.12890577 -0.94345748 -0.15081708
0.16990128 -1.2435024 -0.15410122
0.23653907 -1.7312223 -0.15286931
0.39462304 -2.8882341 -0.15277202
1.1644042 -8.5222387 -0.1501381
0.1347674 -0.96229267 -0.15389937
0.17191443 -1.2275373 -0.15219331
0.24381784 -1.7409561 -0.15380014
0.40552202 -2.8955882 -0.15323208
1.1969321 -8.5465698 -0.1506366
0.13839538 -0.96463996 -0.15434811
0.17604263 -1.2270478 -0.15220496
0.24987675 -1.7416846 -0.15393765
0.41592872 -2.8990955 -0.15349062
1.2245711 -8.5354738 -0.15051255
0.1424301 -0.96962506 -0.1552213
0.1819768 -1.2388482 -0.15374352
0.25419667 -1.7305013 -0.15302369
0.42588943 -2.8993387 -0.15357824
1.2519717 -8.5230808 -0.15036717
0.14523581 -0.96618533 -0.15474772
0.18884821 -1.2563181 -0.15598927
0.26056564 -1.7334203 -0.15335819
0.43384939 -2.8861954 -0.15295823
1.2814696 -8.525013 -0.15047622
0.14925881 -0.97079462 -0.15556525
0.18936223 -1.2316314 -0.15300204
0.26506719 -1.7240243 -0.15260468
0.44292954 -2.8808591 -0.15275326
1.3080025 -8.5073824 -0.15024158
0.15204445 -0.96730864 -0.15508746
0.19449569 -1.2373841 -0.15379682
0.2713131 -1.7260975 -0.15286785
0.45412529 -2.8891509 -0.15327279
1.3365794 -8.503336 -0.15024841
0.15281512 -0.95140517 -0.15261896
0.1991505 -1.2398827 -0.15418951
0.27974844 -1.7416738 -0.15432955
0.46227139 -2.8780358 -0.1527645
1.3641584 -8.4930553 -0.15014674
0.15706371 -0.95734578 -0.15365553
0.20281839 -1.236233 -0.15381935
0.28360757 -1.7286649 -0.15326022
0.47190538 -2.8763909 -0.15276031
1.3945582 -8.5002098 -0.15035503
0.15956955 -0.95261645 -0.15298147
0.20481531 -1.2227299 -0.1522238
0.29056346 -1.7346389 -0.15387538
0.47935718 -2.8617213 -0.15206572
1.4211481 -8.4841318 -0.15015408
0.16481817 -0.96410018 -0.15491353
0.21077427 -1.2329193 -0.15357946
0.2942614 -1.7212754 -0.1527766
0.49168906 -2.8761241 -0.1529178
1.4521526 -8.4943342 -0.15041997
0.16751988 -0.96050441 -0.15442514
0.21211284 -1.2161859 -0.15158278
0.30242917 -1.7340304 -0.15399784
0.50180876 -2.877208 -0.15306403
1.4815981 -8.4950018 -0.15051891
0.17201233 -0.96709448 -0.1555765
0.21837051 -1.2277312 -0.15311214
0.30633134 -1.7222681 -0.1530436
0.50995028 -2.8670623 -0.1526144
1.5101434 -8.4903879 -0.15052602
0.1704144 -0.93982315 -0.15128043
0.22590493 -1.2458494 -0.15546528
0.31132582 -1.7169394 -0.15266196
0.52204061 -2.8790164 -0.15334302
1.5381293 -8.4826727 -0.15047982
0.17571409 -0.95087904 -0.15315403
0.23024493 -1.2459733 -0.1555762
0.318405 -1.7230527 -0.1532996
0.53041559 -2.8703508 -0.15297534
1.5674598 -8.4823284 -0.1505661
0.17831907 -0.94719225 -0.15265566
0.23202798 -1.2324824 -0.15398794
0.32269534 -1.7140878 -0.1525974
0.54039252 -2.8704481 -0.15307622
1.5944576 -8.4694138 -0.15043092
0.18689521 -0.97476023 -0.1571988
0.23682745 -1.2351841 -0.15442385
0.33315304 -1.7375745 -0.15478687
0.54721648 -2.854032 -0.15229775
1.6223015 -8.4611855 -0.15038052
0.1869259 -0.9575491 -0.15452337
0.23918286 -1.2252413 -0.15328018
0.33507457 -1.7164575 -0.15300494
0.55582732 -2.8472884 -0.15203649
1.6500318 -8.4524746 -0.1503232
0.19047627 -0.95863283 -0.15480046
0.24284008 -1.2221706 -0.15299703
0.34200469 -1.7212481 -0.15353334
0.5680083 -2.8586838 -0.15274581
1.6772228 -8.4411621 -0.15022117
0.19247769 -0.95199615 -0.15383211
0.24670398 -1.2201998 -0.15285301
0.34664661 -1.7145168 -0.15303572
0.57758147 -2.8567226 -0.15274362
1.7061381 -8.4385729 -0.15027605
0.19608136 -0.95335293 -0.15415671
0.25383702 -1.2341626 -0.15470785
0.3548812 -1.7254422 -0.15411624
0.58588445 -2.8485863 -0.15241277
1.7354952 -8.4380255 -0.15036906
0.19908695 -0.95178312 -0.15400994
0.25536373 -1.2208279 -0.15314275
0.3577286 -1.7102077 -0.15286177
0.59593427 -2.8490074 -0.15254135
1.7660351 -8.442956 -0.15056162
0.20488229 -0.96336055 -0.1559936
0.25998458 -1.2224525 -0.15345503
0.36257547 -1.7048368 -0.15248951
0.60711628 -2.8546724 -0.15295281
1.7903144 -8.4180937 -0.15022443
0.20846328 -0.96429729 -0.15625757
0.26418188 -1.2220371 -0.15351321
0.37403262 -1.7301781 -0.15486747
0.61422074 -2.8412266 -0.15234186
1.8213419 -8.4250565 -0.15045683
0.20606384 -0.93796003 -0.15210091
0.2721386 -1.2387187 -0.15572251
0.37481746 -1.7060916 -0.15282312
0.6267696 -2.8529258 -0.15308097
1.8516871 -8.4284973 -0.1506283
0.21137327 -0.94696671 -0.1536755
0.27637333 -1.2381715 -0.15576933
0.38163 -1.7097285 -0.15326266
0.63344568 -2.8378801 -0.15238675
1.8759586 -8.4044228 -0.15030962
0.21134655 -0.93213689 -0.15138304
0.2751874 -1.2137048 -0.15280651
0.38746801 -1.7089146 -0.15330529
0.64639544 -2.8509054 -0.1532017
1.9051188 -8.402463 -0.15038796
0.21775204 -0.94567382 -0.15369919
0.28172144 -1.2234861 -0.15415603
0.39341223 -1.7085472 -0.1533898
0.65245706 -2.8335509 -0.1523858
1.9323009 -8.3917761 -0.1503118
0.21880628 -0.93589115 -0.15222761
0.28420508 -1.2156187 -0.15328397
0.40108868 -1.7155602 -0.15413927
0.66778791 -2.856302 -0.15372887
1.9586803 -8.3777828 -0.15017794
0.2225527 -0.93772155 -0.15264584
0.28811434 -1.2139642 -0.15319629
0.40051353 -1.6875561 -0.15174296
0.67203629 -2.8316121 -0.15252046
1.9867522 -8.3711424 -0.15017748
0.22726232 -0.94347495 -0.15370557
0.28996396 -1.2037795 -0.15203285
0.4143202 -1.7200419 -0.15478809
0.68158466 -2.8295848 -0.1525335
2.0192547 -8.3828955 -0.15050893
0.23304321 -0.95342195 -0.1554525
0.29588848 -1.2105334 -0.15301028
0.41788992 -1.7096633 -0.15397933
0.69094241 -2.8267703 -0.1525058
2.0447066 -8.3652649 -0.15031461
0.23030336 -0.92870152 -0.15154697
0.30460352 -1.228318 -0.15538645
0.42202657 -1.701828 -0.15340024
0.70415527 -2.8395159 -0.15331994
2.0739586 -8.3632669 -0.15040283
0.23748942 -0.94411838 -0.15419178
0.30500305 -1.2125129 -0.15351555
0.42768973 -1.700243 -0.15338576
0.71116227 -2.8271632 -0.15278085
2.1010518 -8.3525467 -0.15033589
0.23954768 -0.93898207 -0.15348323
0.31138408 -1.2205672 -0.15466663
0.43460131 -1.7035557 -0.15381519
0.72444135 -2.8396742 -0.15358734
2.1312943 -8.3542747 -0.15049475
0.24149847 -0.93354994 -0.15272681
0.3119452 -1.2058728 -0.15293625
0.43685675 -1.6887378 -0.15260868
0.73148793 -2.8276806 -0.15307043
2.1572251 -8.3390894 -0.15035065
0.2468579 -0.94124061 -0.15411952
0.31937417 -1.2177368 -0.15457587
0.44573349 -1.6995304 -0.15371817
0.73750722 -2.8120298 -0.15235621
2.1857681 -8.3340807 -0.15039164
0.24881783 -0.9359147 -0.1533832
0.32189831 -1.2108029 -0.15383182
0.45252538 -1.7021495 -0.15409143
0.74468142 -2.8010786 -0.1518973
2.2126544 -8.3227787 -0.15032071
0.24982634 -0.92717743 -0.1520877
0.32877249 -1.2201693 -0.15516101
0.4578335 -1.6991519 -0.15395816
0.76126039 -2.8252563 -0.15334597
2.2421987 -8.3214445 -0.15043154
0.25566903 -0.93635285 -0.15373251
0.32857108 -1.2033465 -0.15316099
0.46306777 -1.6959223 -0.15380535
0.77122319 -2.8244991 -0.15344435
2.2704277 -8.3151302 -0.15045416
0.25546169 -0.92339826 -0.15174538
0.33404851 -1.2074602 -0.15382627
0.46674961 -1.6871248 -0.15314856
0.77807206 -2.812439 -0.15293002
2.2982209 -8.3072071 -0.1504494
0.25988191 -0.92726666 -0.15252341
0.33606708 -1.1990976 -0.15290359
0.47115004 -1.6810777 -0.15274218
0.78934991 -2.8164246 -0.15328981
2.3229222 -8.2882576 -0.15024641
0.26837328 -0.94535494 -0.15564583
0.34156278 -1.2031677 -0.15356776
0.48111358 -1.6947407 -0.15412928
0.79376698 -2.7960739 -0.15232617
2.3524439 -8.2865725 -0.15035799
0.2674363 -0.93017197 -0.15329283
0.3450999 -1.2002943 -0.15334782
0.48842958 -1.6988102 -0.15464744
0.80844992 -2.8118751 -0.1533338
2.379447 -8.2759714 -0.15030953
0.27026182 -0.92826837 -0.1531276
0.35338485 -1.2137711 -0.15522009
0.49260488 -1.6919501 -0.15417244
0.81238335 -2.7902932 -0.1523046
2.4084017 -8.2721386 -0.15038574
0.27553776 -0.93470174 -0.15434037
0.35442349 -1.2023044 -0.15390481
0.49357578 -1.6743481 -0.15271847
0.82348615 -2.7934971 -0.15262933
2.4361072 -8.2639618 -0.15038474
0.27421248 -0.91883606 -0.15187155
0.35620743 -1.1935861 -0.15294082
0.50146955 -1.680333 -0.15341684
0.83276075 -2.7904296 -0.15261342
2.4623144 -8.2507668 -0.15029402
0.28393447 -0.93990117 -0.15550981
0.35658938 -1.1804088 -0.15140469
0.50764185 -1.6804341 -0.15358061
0.84096545 -2.7838268 -0.15240565
2.4923568 -8.2503853 -0.15043844
0.27947128 -0.91404492 -0.15138599
0.3689855 -1.2068121 -0.15494911
0.51023847 -1.6687971 -0.15267256
0.8511433 -2.7837682 -0.15255782
2.5175869 -8.2340755 -0.15029411
0.2880294 -0.93086195 -0.15433034
0.36878499 -1.1918502 -0.15318596
0.51909709 -1.6776334 -0.15363932
0.86126435 -2.7834597 -0.15269831
2.5469611 -8.2313442 -0.15039928
0.29233021 -0.93366432 -0.15495658
0.37178099 -1.1874197 -0.15277587
0.5213393 -1.6650892 -0.15264975
0.86917853 -2.7760422 -0.1524504
2.5740223 -8.2210894 -0.15036875
0.29388607 -0.92771375 -0.15413167
0.37938964 -1.1976238 -0.15425156
0.53229034 -1.6802874 -0.1542058
0.88090044 -2.7807491 -0.15287024
2.6032217 -8.2176218 -0.15046413
0.2939257 -0.91714638 -0.15253885
0.38490057 -1.2010183 -0.1548541
0.53493685 -1.6691816 -0.15335032
0.88847387 -2.7723353 -0.15257059
2.6292922 -8.2042694 -0.15038022
0.29761004 -0.91804039 -0.15285265
0.38623741 -1.1914301 -0.15378393
0.54210198 -1.6722269 -0.15379621
0.8984558 -2.7714748 -0.15268816
2.6576936 -8.1982117 -0.15043166
0.30061677 -0.91682512 -0.15281726
0.39369136 -1.2006853 -0.15514806
0.5447098 -1.6612635 -0.152955
0.90463012 -2.7589531 -0.15216455
2.6826141 -8.1814728 -0.15028872
0.30553845 -0.92138928 -0.1537479
0.39710444 -1.1975179 -0.15490995
0.5480805 -1.652805 -0.15234455
0.91410631 -2.7566013 -0.15220302
2.7125986 -8.1801786 -0.15043117
0.30588666 -0.91219068 -0.15238325
0.40027353 -1.1936636 -0.15458411
0.55629939 -1.6589514 -0.15308216
0.92704469 -2.7645583 -0.15281312
2.7371292 -8.162447 -0.15027301
0.31179142 -0.91955972 -0.15378805
0.40081644 -1.1821193 -0.15326224
0.56411511 -1.6637325 -0.153697
0.93573254 -2.7597358 -0.15271911
2.7679045 -8.1633215 -0.15045911
0.3122066 -0.91073167 -0.15248583
0.40601006 -1.184364 -0.15372889
0.56506687 -1.6483454 -0.1524497
0.94328952 -2.7516513 -0.15244588
2.7928419 -8.146944 -0.15032899
0.31854907 -0.91917521 -0.15407752
0.40917447 -1.1806754 -0.15342732
0.57678229 -1.6643088 -0.15410408
0.95649076 -2.7599597 -0.153083
2.8179252 -8.1311398 -0.15021086
0.32297897 -0.92195529 -0.15472418
0.41223282 -1.1767336 -0.15309386
0.58103919 -1.6585976 -0.15375479
0.96283525 -2.7484484 -0.15262271
2.8465743 -8.1256504 -0.15028492
0.32496971 -0.9177646 -0.15420288
0.41633913 -1.1758059 -0.15315391
0.58486217 -1.651741 -0.15330009
0.97401989 -2.7507825 -0.15293281
2.875613 -8.1211748 -0.15037963
0.32837915 -0.91760367 -0.15435997
0.42041153 -1.1747737 -0.15320219
0.59488332 -1.6623075 -0.15446502
0.98638922 -2.7563088 -0.15342306
2.9064431 -8.1215963 -0.15056702
0.33116904 -0.91570997 -0.15422732
0.42487133 -1.1748047 -0.15339114
0.59271288 -1.6389005 -0.15247379
0.99121583 -2.7407944 -0.15274362
2.9295061 -8.1003284 -0.15035398
0.33338106 -0.91225135 -0.1538322
0.42870036 -1.1730794 -0.15335269
0.59921062 -1.6396571 -0.15273026
0.99375451 -2.7192721 -0.15172902
2.9595432 -8.098382 -0.15050121
0.33784384 -0.91493618 -0.15447508
0.43292347 -1.1724274 -0.15345635
0.60938734 -1.6503204 -0.15391295
1.0143381 -2.7469931 -0.15346469
2.9786983 -8.0668001 -0.15009904
0.3386229 -0.90766901 -0.15343894
0.43925184 -1.177402 -0.15429935
0.61262679 -1.6421287 -0.15333968
1.0152686 -2.7213986 -0.15222412
3.0113292 -8.0717821 -0.15037875
0.34297457 -0.91000533 -0.15402742
0.44026712 -1.168149 -0.15327932
0.62040806 -1.6461122 -0.15390502
1.0266182 -2.7238986 -0.15255566
3.0362182 -8.0559168 -0.15027198
0.34841481 -0.91513056 -0.15509176
0.44380838 -1.165687 -0.15315066
0.62252605 -1.6350988 -0.1530696
1.0349363 -2.7183168 -0.15243651
3.0612011 -8.0404129 -0.15017338
0.34888557 -0.90720809 -0.15394647
0.44622868 -1.1603296 -0.1526425
0.63287163 -1.6456578 -0.15425585
1.0415784 -2.7084188 -0.15207644
3.0950708 -8.0481215 -0.15051034
0.34895769 -0.89839303 -0.15264831
0.45426857 -1.1695164 -0.15405054
0.63276571 -1.629058 -0.15289788
1.050902 -2.7055519 -0.15211244
3.1202018 -8.0329723 -0.15042184
0.3530308 -0.89992756 -0.15310931
0.45556402 -1.1612998 -0.15316857
0.6403951 -1.6324617 -0.15341799
1.0662469 -2.7180204 -0.15301359
3.1475892 -8.0236692 -0.1504444
0.3598597 -0.90836525 -0.15474926
0.46194601 -1.1660537 -0.15399899
0.64148837 -1.6192582 -0.15237841
1.0738933 -2.7107437 -0.15280578
3.1715851 -8.0057802 -0.15030752
0.35677487 -0.89183438 -0.152136
0.46718296 -1.1678228 -0.15443864
0.64997512 -1.6247506 -0.15309949
1.0821633 -2.7050967 -0.15269113
3.1946878 -7.9857993 -0.15013264
0.36634457 -0.90692657 -0.15491919
0.46815309 -1.1589649 -0.15347393
0.65696079 -1.6263793 -0.15345965
1.0911096 -2.7011626 -0.1526747
3.2259479 -7.9861913 -0.15034251
0.36300778 -0.89006114 -0.15224533
0.47345352 -1.1608636 -0.15393473
0.66229028 -1.6238737 -0.15343189
1.0991303 -2.6949644 -0.1525318
3.2607491 -7.9950514 -0.15071426
0.36832044 -0.89449883 -0.15321477
0.47958931 -1.1647252 -0.15465912
0.66987753 -1.6268569 -0.15392511
1.1107994 -2.6976748 -0.15289514
3.2811573 -7.9685812 -0.15042181
0.37343436 -0.89835137 -0.15408824
0.48027515 -1.1553726 -0.1536302
0.67070514 -1.6134801 -0.15287137
1.1168379 -2.6867182 -0.15248553
3.3049083 -7.9504437 -0.15028776
0.37578243 -0.89551711 -0.15381734
0.47595081 -1.1342256 -0.15102962
0.67778522 -1.6152118 -0.1532499
1.1303109 -2.6936138 -0.15309112
3.3330889 -7.9429955 -0.15035737
0.37467912 -0.88456386 -0.1521509
0.48613602 -1.1476977 -0.15303969
0.68141484 -1.6087232 -0.15285017
1.1395161 -2.6902349 -0.15311536
3.362596 -7.9386086 -0.1504869
0.38070375 -0.89046228 -0.15338415
0.49243474 -1.1517999 -0.153806
0.69534767 -1.6264111 -0.15475141
1.1438195 -2.6753821 -0.15248743
3.390712 -7.9308414 -0.15055431
0.38045976 -0.88170135 -0.15209395
0.4989922 -1.156396 -0.15464228
0.69623476 -1.6134983 -0.15374401
1.1585678 -2.684938 -0.15325262
3.4128075 -7.9090552 -0.15035711
0.38322413 -0.87998533 -0.15201871
0.50041556 -1.1490883 -0.15388852
0.69317466 -1.5917147 -0.15188894
1.161907 -2.6680498 -0.15251017
3.4432783 -7.9066896 -0.15053077
0.38824183 -0.88340425 -0.15283334
0.50654548 -1.1525921 -0.15458435
0.70096105 -1.5949646 -0.15242247
1.1665366 -2.6543336 -0.15194885
3.4616241 -7.8765688 -0.15017743
0.38998973 -0.87936515 -0.15235993
0.50525492 -1.1392699 -0.15302394
0.70915711 -1.5990372 -0.15303802
1.1851124 -2.672241 -0.15320057
3.4937201 -7.8777862 -0.15042314
0.39913127 -0.89189684 -0.15476218
0.50860107 -1.1365175 -0.15288243
0.71382588 -1.5951118 -0.15289055
1.1911404 -2.6617167 -0.15282531
3.519104 -7.8637733 -0.15038002
0.39899299 -0.88362974 -0.15355894
0.51472598 -1.1399378 -0.15357381
0.72154665 -1.5979731 -0.15339582
1.2020732 -2.6621711 -0.15308194
3.5486279 -7.8589683 -0.15051481
0.40587524 -0.89089543 -0.15505719
0.51877213 -1.1387039 -0.15364105
0.73024654 -1.6028899 -0.15410195
1.2104328 -2.656898 -0.15301123
3.5697899 -7.8356833 -0.15029724
0.40345475 -0.87776989 -0.15300731
0.5242545 -1.140586 -0.15413128
0.7336297 -1.5961096 -0.15368572
1.2152656 -2.6439734 -0.15250069
3.5978429 -7.8275895 -0.15037253
0.40108794 -0.86496627 -0.15100902
0.53350186 -1.1505235 -0.15571502
0.73875433 -1.5931609 -0.15363942
1.2246695 -2.6410613 -0.15256871
3.6270413 -7.8218966 -0.15049595
0.41198763 -0.88072252 -0.15400012
0.5300023 -1.1330073 -0.15358397
0.73865002 -1.579042 -0.15251581
1.2323853 -2.6345196 -0.15242866
3.6487954 -7.8001766 -0.15031259
0.40553865 -0.85941678 -0.15051156
0.53434104 -1.1323745 -0.15374018
0.74996102 -1.589316 -0.15375017
1.2459685 -2.6404541 -0.15301286
3.6772165 -7.7927504 -0.15040621
0.41154277 -0.86461747 -0.15166318
0.53524977 -1.1245157 -0.15291598
0.75460583 -1.5853647 -0.15361181
1.2488254 -2.6236794 -0.15228255
3.7055151 -7.7849822 -0.15049523
0.41785201 -0.87034094 -0.15291202
0.53519511 -1.1147541 -0.15183173
0.75762349 -1.5780486 -0.15314819
1.2673336 -2.6397204 -0.15345936
3.7299068 -7.7689962 -0.1504271
0.42657462 -0.88092697 -0.15502232
0.53847045 -1.112005 -0.15170234
0.76342493 -1.5765626 -0.15325153
1.2731266 -2.6291568 -0.15309255
3.7577274 -7.7601509 -0.15049894
0.42891464 -0.87824035 -0.15480173
0.55280828 -1.1319234 -0.15467165
